# .PCD v0.7 - Point Cloud Data file format
VERSION 0.7
FIELDS x y z
SIZE 4 4 4
TYPE F F F
COUNT 1 1 1
WIDTH 1352
HEIGHT 1
VIEWPOINT 0 0 0 1 0 0 0
POINTS 1352
DATA ascii
-0.04059549 0.040519923 0.11398965
-0.038629469 0.04050817 0.11398605
-0.03764613 0.040708825 0.11394112
-0.035675086 0.040391073 0.113998
-0.03469687 0.040230103 0.11386108
-0.031760361 0.040486377 0.1135866
-0.02879929 0.040034737 0.11398961
-0.023344509 0.040243499 0.11399368
-0.021394746 0.040462889 0.11396049
-0.019431051 0.040318534 0.1139065
-0.018979318 0.040675476 0.1139734
0.0035840764 0.040574092 0.1139641
0.0045597078 0.040521629 0.11393493
0.0065191626 0.040941577 0.11398619
0.0084696496 0.040760104 0.11398672
0.0094471937 0.040143181 0.11392793
0.010426567 0.040363818 0.11397381
0.014361456 0.040084101 0.11394938
0.020238752 0.040041607 0.11399213
0.032468673 0.040786218 0.11394784
0.038326476 0.040888142 0.11394658
0.041271292 0.040116079 0.11396682
0.042246927 0.040055167 0.11385335
0.046709061 0.040615436 0.11386544
0.077072725 0.040423211 0.11375189
0.078079544 0.040144347 0.11391431
0.079390496 0.040516276 0.11399971
0.080016457 0.040310636 0.11393106
0.081395559 0.040623453 0.1138918
0.083942607 0.040273234 0.11387885
0.0842757 0.040867683 0.11387482
0.085259929 0.040412627 0.11385787
0.086240955 0.040150765 0.11392591
0.099873997 0.040516626 0.11384738
-0.095869064 0.04150008 0.11345647
-0.094882555 0.041132048 0.11306158
-0.092927165 0.041460413 0.11317771
-0.09195172 0.041498899 0.11348294
-0.090973444 0.041487526 0.1138285
-0.044514343 0.0414492 0.11383864
-0.043535016 0.041736878 0.11393934
-0.04157497 0.041781019 0.11396679
-0.0386298 0.041421507 0.11398691
-0.036660746 0.041929655 0.11389232
-0.034697134 0.041020095 0.11399211
-0.033719029 0.04171358 0.11386656
-0.023344403 0.041735999 0.11391862
-0.021394694 0.041532882 0.1137352
-0.020406323 0.041921318 0.11398026
-0.014530046 0.0418275 0.11395286
-0.003284228 0.041847788 0.11396246
0.0016058384 0.041561246 0.11396699
0.0035840059 0.041345596 0.11390442
0.0045596454 0.041117739 0.11395165
0.005546974 0.04143101 0.11398044
0.0065191509 0.041076578 0.11396621
0.0084695257 0.041935109 0.11395183
0.032468539 0.041644961 0.11389256
0.033448301 0.041508399 0.11390461
0.03539931 0.041698597 0.11393577
0.037345879 0.041545808 0.11373212
0.038326364 0.041338615 0.11390249
0.044739958 0.041745435 0.11393657
0.04571484 0.041519657 0.11392738
0.077113576 0.041526269 0.11393132
0.078056917 0.041205164 0.11394706
0.08100336 0.041123409 0.11392371
0.083942488 0.041883226 0.11393899
0.084275529 0.041099358 0.11392729
0.085259102 0.041509721 0.11389515
0.099873692 0.041463777 0.1138779
-0.095868975 0.042524196 0.11324945
-0.092927083 0.042726073 0.11307112
-0.091951683 0.042329121 0.11316945
-0.090973385 0.042520516 0.11368869
-0.089989558 0.042620692 0.11392254
-0.044514615 0.042105529 0.11382946
-0.043535318 0.042502876 0.11390236
-0.042556129 0.042780638 0.11399367
-0.04059625 0.042553261 0.1139197
-0.038630158 0.042429838 0.11395276
-0.036660787 0.042009652 0.11396733
-0.035675794 0.042696077 0.11391433
-0.034697637 0.042692594 0.11393717
-0.032736916 0.042557195 0.11391988
-0.030768707 0.042217832 0.11398491
-0.021394629 0.042496521 0.11381575
-0.020406293 0.042504951 0.1138991
-0.019430939 0.0424162 0.11394574
-0.018449076 0.042903356 0.11381987
-0.014530025 0.042182498 0.11387784
-0.0032842609 0.042211123 0.11392248
-0.0023013873 0.04287846 0.11393519
0.0025922197 0.042470302 0.11389929
0.0084695145 0.042025104 0.11396683
0.012398788 0.042067643 0.11397281
0.028553924 0.042973697 0.11397485
0.032468405 0.042504389 0.11383665
0.033448096 0.042782068 0.11390731
0.034420844 0.042553425 0.1139004
0.035399154 0.042495858 0.11372889
0.036370948 0.04251555 0.11388659
0.037345663 0.042513315 0.11383978
0.038326006 0.042893142 0.11396474
0.039304607 0.042889714 0.11395837
0.043754194 0.042457514 0.11396793
0.045714762 0.042381655 0.11387295
0.077164575 0.042732485 0.11391722
0.08001627 0.042370632 0.11399954
0.081331663 0.042976245 0.11398675
0.082318231 0.042510189 0.11389495
0.083621189 0.042303115 0.11388177
0.084274419 0.042563774 0.11373789
0.085258335 0.042507898 0.1138618
0.099873893 0.042495925 0.11390197
-0.095868878 0.043352176 0.11373136
-0.094882347 0.043482222 0.11326996
-0.092927061 0.043086905 0.11303362
-0.090973377 0.043506574 0.11313292
-0.08984863 0.043576002 0.11366803
-0.043535545 0.043095212 0.1138427
-0.042556256 0.043130636 0.1139395
-0.041575566 0.043368522 0.11384932
-0.03863072 0.043981507 0.11397447
-0.036661346 0.043719649 0.11395404
-0.03567617 0.043911077 0.11388314
-0.034697793 0.043180093 0.11398221
-0.032737203 0.04352339 0.11389919
-0.029778617 0.043508641 0.1138467
-0.027820118 0.043226156 0.11398116
-0.026834961 0.043903928 0.11397211
-0.022909582 0.043611269 0.11381425
-0.021394571 0.043271225 0.11397162
-0.020406257 0.04306132 0.11398271
-0.019430878 0.043552872 0.11393986
-0.018802842 0.043265123 0.11391685
-0.017460911 0.043460883 0.1139258
-0.014075575 0.043720629 0.11399368
-0.01014831 0.043376058 0.1139103
-0.0066845375 0.043063842 0.11399628
-0.0042567663 0.043907065 0.1139842
-0.0037582843 0.043835714 0.11397741
-0.0023309011 0.043466166 0.11398365
0.0016056264 0.043688133 0.11385261
0.0074967737 0.043099884 0.11398228
0.028553905 0.043108691 0.11394984
0.030507267 0.043591194 0.1137982
0.031489164 0.043734878 0.11388116
0.032468244 0.043503929 0.11382294
0.033447973 0.043502331 0.11381679
0.034420673 0.04349032 0.11371318
0.03539896 0.043495402 0.11369792
0.03676714 0.043454245 0.11396147
0.037345443 0.043503758 0.11373787
0.038325854 0.043520108 0.11387666
0.039842401 0.043827306 0.11386245
0.043754093 0.043450013 0.11395177
0.044739831 0.043107107 0.11384001
0.04571468 0.04317965 0.11394501
0.078056723 0.043270163 0.1139622
0.079033092 0.043265749 0.11399418
0.080016159 0.043635633 0.11393964
0.081439368 0.043344211 0.11384848
0.082317457 0.043546848 0.11385202
0.083299212 0.043490086 0.11369706
0.084273703 0.043496147 0.1137594
0.08525756 0.043517306 0.11396103
0.086238228 0.043700527 0.11394082
0.099873722 0.043327339 0.11393224
-0.094882227 0.044447746 0.11369441
-0.093901396 0.044699844 0.11316849
-0.092926949 0.04454441 0.11301854
-0.09097331 0.044462886 0.1130295
-0.089496396 0.044509571 0.11353225
-0.088716276 0.044589266 0.11369173
-0.036661465 0.044074651 0.11397739
-0.035676271 0.04420441 0.11393481
-0.033719838 0.044401079 0.11390251
-0.032737404 0.044170525 0.11394594
-0.029778799 0.044118632 0.11395299
-0.026835078 0.04448894 0.11382549
-0.023899863 0.044677988 0.11387156
-0.022909861 0.044892099 0.11391599
-0.021394502 0.044331893 0.11396956
-0.018448979 0.044532117 0.11396227
-0.017460849 0.044550378 0.11388974
-0.016112048 0.044559415 0.11395562
-0.01550145 0.044415861 0.11389676
-0.010148481 0.044812065 0.11387043
-0.0091970246 0.044892974 0.11396878
-0.0057103327 0.044880033 0.11394712
-0.0042567989 0.044323947 0.1138961
-0.0033371784 0.044899601 0.11393841
-0.0013259454 0.044442244 0.11394355
0.0005684729 0.044749569 0.11391915
0.0025920274 0.044402059 0.11388336
0.0045593251 0.044454414 0.11384361
0.0055466704 0.044436008 0.11398321
0.0094467122 0.044721514 0.11392549
0.014361 0.044791598 0.11399975
0.028553758 0.04433655 0.11393619
0.029531097 0.04459193 0.11373712
0.030507131 0.044485528 0.11362416
0.03166797 0.044866078 0.11392761
0.032468088 0.044499382 0.11375604
0.03344781 0.044509608 0.1138908
0.034420494 0.044488501 0.11368901
0.035901282 0.04445963 0.11383897
0.03687799 0.04484228 0.11394437
0.037860647 0.044574868 0.11393537
0.038861696 0.044599902 0.11377122
0.039842382 0.044003971 0.11388246
0.042768262 0.044567388 0.1139634
0.043754015 0.044257514 0.11395309
0.075131491 0.044162299 0.11398984
0.0770723 0.044663202 0.11392722
0.07903298 0.044483256 0.11394176
0.080359288 0.044878472 0.11392963
0.081112236 0.04479662 0.11384251
0.082316786 0.04445117 0.11372466
0.083620384 0.044284493 0.1138479
0.084272936 0.044502974 0.11380286
0.085256793 0.044515632 0.11392969
0.08666116 0.044207264 0.11394536
0.087860681 0.044665098 0.11390032
0.09987542 0.044509921 0.11392279
-0.093901314 0.045499995 0.11339246
-0.09292686 0.045734409 0.11304761
-0.090973265 0.045043383 0.11300647
-0.089474909 0.045500819 0.11320445
-0.088024914 0.045912132 0.11388548
-0.046488903 0.045067407 0.11385928
-0.040597305 0.045347426 0.11389396
-0.039614737 0.04568914 0.11390845
-0.037647866 0.045822576 0.11391754
-0.036661968 0.045617152 0.11396059
-0.035676748 0.045741078 0.11389323
-0.033720132 0.045388583 0.11388005
-0.030769698 0.045777839 0.11393674
-0.029779142 0.045371141 0.11395553
-0.028800687 0.045474745 0.11388121
-0.027820764 0.045866158 0.11396134
-0.026835239 0.045058928 0.11399719
-0.025860388 0.045772683 0.11368974
-0.023899961 0.045060486 0.11399721
-0.022909911 0.045116261 0.11392018
-0.021928098 0.04533729 0.11395472
-0.019947268 0.045547888 0.11374863
-0.018980183 0.045849651 0.11384548
-0.017168686 0.045427691 0.11388423
-0.016194144 0.045111209 0.11396658
-0.015057664 0.045613024 0.11391407
-0.014075844 0.045423634 0.11396983
-0.013094543 0.045698475 0.11392149
-0.012259957 0.045616671 0.11397222
-0.011176145 0.045638535 0.11393225
-0.010148523 0.045118552 0.11390796
-0.0091758072 0.045335941 0.11392938
-0.0082028266 0.04537883 0.11399277
-0.0066843792 0.04564717 0.11389698
-0.0057102945 0.045513213 0.11391585
-0.0042569484 0.045652062 0.11399186
-0.0032893289 0.045483656 0.11386907
-0.0024194017 0.045838088 0.11399594
-0.0017899146 0.045692194 0.11391637
-0.0008037588 0.045244332 0.1139876
0.00055763545 0.045730654 0.1139113
0.0035835996 0.045378093 0.11391854
0.0045591644 0.04591107 0.11396793
0.0065186638 0.045921579 0.11392915
0.0094466051 0.045750681 0.11390844
0.011414424 0.045610938 0.11394037
0.014360924 0.0455966 0.11398984
0.017285326 0.045550853 0.11398149
0.019256838 0.045778327 0.11399324
0.024151372 0.045499157 0.11386462
0.027090782 0.045244634 0.11399134
0.029530989 0.045498218 0.11388361
0.030072302 0.045263857 0.11388695
0.03103821 0.045666646 0.11393175
0.032914769 0.045309838 0.11393394
0.033939052 0.045797918 0.11377385
0.034909558 0.04532247 0.11391693
0.035398606 0.045327161 0.11382549
0.036890816 0.045412272 0.11395763
0.037882064 0.045251932 0.11390556
0.038866043 0.045738541 0.11395912
0.040812455 0.045738626 0.11393535
0.042768195 0.045342401 0.11384596
0.076102331 0.045326162 0.11396485
0.08035861 0.045791138 0.11394316
0.081043899 0.045381617 0.11374815
0.082639828 0.045516424 0.11392106
0.083297685 0.045500997 0.11378899
0.084272183 0.045487214 0.11390264
0.085256018 0.045533974 0.11395985
0.086236998 0.045299105 0.11397342
0.087860607 0.045415092 0.11398287
0.099859379 0.045541327 0.11386362
-0.093901202 0.046491109 0.11372295
-0.09292677 0.046534423 0.11327181
-0.090756573 0.046422411 0.11377299
-0.089496262 0.046490014 0.11326998
-0.088024877 0.046488944 0.113705
-0.087039016 0.046143275 0.11393967
-0.084800102 0.046790123 0.11399734
-0.039614875 0.046041284 0.11393632
-0.037647981 0.046188831 0.11384131
-0.036662139 0.046250664 0.11374149
-0.03567699 0.046476074 0.11394323
-0.03469884 0.046650097 0.11388569
-0.033720471 0.046496082 0.11393258
-0.029779406 0.046356138 0.11393309
-0.028800903 0.046272237 0.11392248
-0.027820848 0.046227828 0.11393137
-0.026835581 0.046545181 0.11391479
-0.025860561 0.046471424 0.11380187
-0.024881398 0.046048954 0.1139632
-0.023900293 0.046711504 0.11369731
-0.022910262 0.04675876 0.11397281
-0.021928325 0.04645301 0.11396694
-0.020945711 0.04667164 0.11338872
-0.018714637 0.04655109 0.11394721
-0.017460736 0.046500329 0.11379731
-0.016266018 0.046884656 0.1139618
-0.015094754 0.046503257 0.11375293
-0.014113815 0.046518192 0.11387829
-0.013094688 0.046632975 0.11395356
-0.012149548 0.046469755 0.11389663
-0.011129383 0.046425074 0.11391873
-0.010148675 0.046422061 0.11384659
-0.0091689117 0.046940994 0.11396044
-0.0082029607 0.046542585 0.1139679
-0.0072196275 0.046648264 0.11384526
-0.0062345611 0.046606086 0.11382784
-0.0052583409 0.046529368 0.11381381
-0.0042668199 0.046566278 0.11384527
-0.0032886008 0.046484347 0.11380198
-0.0023017316 0.04658198 0.11368553
-0.0013307782 0.046452262 0.11386043
-0.00040621209 0.046648484 0.11379866
0.00059521396 0.046520125 0.11375821
0.001555179 0.046661455 0.11368876
0.0024389045 0.046349403 0.11394944
0.0035835232 0.046494626 0.11361212
0.0045591192 0.046508357 0.11384729
0.0055464488 0.046923529 0.11375593
0.0065186159 0.046516594 0.11382534
0.0084690461 0.046365105 0.11397474
0.0094465269 0.046461515 0.11393151
0.010425939 0.04683508 0.11383063
0.01141436 0.046530042 0.113759
0.012398378 0.046701584 0.11381287
0.013386268 0.046767954 0.11394044
0.014360823 0.046871614 0.11381993
0.015334425 0.046590962 0.11389353
0.016311198 0.046764772 0.11392041
0.017285202 0.046730857 0.11395409
0.018268073 0.046598256 0.11384674
0.019256774 0.046503834 0.11390831
0.020238122 0.046744958 0.11378944
0.0212184 0.046820093 0.11391913
0.022203686 0.046419024 0.11391626
0.024151262 0.04655866 0.1138886
0.025129111 0.046826623 0.11390553
0.026104122 0.046440773 0.11386091
0.027210927 0.046794876 0.11392814
0.028232716 0.046877857 0.11395247
0.029097127 0.046510484 0.11384851
0.03050684 0.046486888 0.11358581
0.031054221 0.046612777 0.1138888
0.03293905 0.046771329 0.11394989
0.033826672 0.046102919 0.11391748
0.034802422 0.046317581 0.11398055
0.035915405 0.046724405 0.11392143
0.036370132 0.046436012 0.11397626
0.038866006 0.046136044 0.11399208
0.040812399 0.046417385 0.11388166
0.080358006 0.046607357 0.11390714
0.081288844 0.046506893 0.1137863
0.082315221 0.046511553 0.11385252
0.083297081 0.046289135 0.11392728
0.084271401 0.0465139 0.11388981
0.085575521 0.046700895 0.11390592
0.086872578 0.046771478 0.11385844
0.08786051 0.046487592 0.11397047
0.088839151 0.046555988 0.11380483
0.089816429 0.046895485 0.11395898
0.092763118 0.04693291 0.11399551
0.093739778 0.046856742 0.11391312
0.094708316 0.046952315 0.11388782
0.096671142 0.046889469 0.11399335
0.097643636 0.046894863 0.11395407
0.098644435 0.046945591 0.11388558
0.09987469 0.046409722 0.11391728
-0.097477771 0.047754966 0.11398542
-0.095563643 0.04765068 0.11399131
-0.094881907 0.047918756 0.11387122
-0.093901142 0.047182024 0.11381461
-0.092926674 0.04744257 0.11369961
-0.091951273 0.04750907 0.11340442
-0.090973087 0.047563888 0.11307631
-0.08947473 0.047486264 0.1134041
-0.088024773 0.047492128 0.11369947
-0.087038927 0.047234941 0.1139296
-0.084800914 0.047837615 0.11385228
-0.083819225 0.047709107 0.11384185
-0.082833484 0.047821317 0.1139719
-0.077928372 0.047771193 0.11399633
-0.037503816 0.047309127 0.1139726
-0.03666253 0.047342151 0.11393254
-0.034699123 0.047548845 0.11390989
-0.033720791 0.047573581 0.11389764
-0.032738436 0.047627192 0.11392009
-0.031762511 0.047656856 0.11392274
-0.030770177 0.047467832 0.11397682
-0.02977963 0.047216143 0.11386064
-0.028801104 0.047087241 0.11384503
-0.027821118 0.047351167 0.11389395
-0.025860827 0.047502667 0.11398111
-0.024881825 0.047918949 0.1139883
-0.023900531 0.04777883 0.11373071
-0.020945897 0.047447693 0.11368377
-0.018196266 0.047155313 0.11389139
-0.017110543 0.04763481 0.11378543
-0.016112434 0.047471769 0.11386049
-0.015057949 0.047481295 0.11379183
-0.014076161 0.047504146 0.113853
-0.013185826 0.047846608 0.11375709
-0.012181257 0.047640186 0.11388975
-0.011129507 0.047503043 0.11377912
-0.010148795 0.047510613 0.11374113
-0.0091689453 0.047474016 0.11368749
-0.0082030976 0.04775859 0.11390299
-0.0072141644 0.047518965 0.11371521
-0.0062332707 0.047509257 0.11380145
-0.0052696625 0.047807302 0.11382022
-0.0042610751 0.047470987 0.11377522
-0.0032875771 0.047482662 0.11366999
-0.002305099 0.047514815 0.11372644
-0.0013289544 0.04749563 0.11352633
-0.00043109749 0.047312319 0.11376739
0.00059513771 0.047530603 0.11358907
0.0015676474 0.047526401 0.11358181
0.0025535075 0.047495201 0.11376966
0.0035468638 0.047481835 0.11376283
0.004559041 0.04751974 0.11365147
0.0055463952 0.047509216 0.1137171
0.0065185199 0.047504328 0.11379042
0.0074963239 0.047507323 0.11378145
0.008468912 0.047635108 0.11394652
0.0094464198 0.047555525 0.11384661
0.010425903 0.047456697 0.11354819
0.011414274 0.047519144 0.11371862
0.012398315 0.047376588 0.11382293
0.013386224 0.047514066 0.11371622
0.014360814 0.047463011 0.11342862
0.015334341 0.047462083 0.11384083
0.016311144 0.047525708 0.1135931
0.017285135 0.047504503 0.11375643
0.018267976 0.047499642 0.11385587
0.019256657 0.047768842 0.11381292
0.020282863 0.047440931 0.11382665
0.021218358 0.047516819 0.1137301
0.022203602 0.047708906 0.1136444
0.023228506 0.047554076 0.11384653
0.024151182 0.047523674 0.11370523
0.02512905 0.047505949 0.11383605
0.026145561 0.047503572 0.1138288
0.027130676 0.047520787 0.11370485
0.028116036 0.047458276 0.11384175
0.029097036 0.047503904 0.1137675
0.030047774 0.047534797 0.11374607
0.031328678 0.047495689 0.11377508
0.03295644 0.047430921 0.11390211
0.033952896 0.047486871 0.11389693
0.034420006 0.047294427 0.11398403
0.03689884 0.04779233 0.1139445
0.038865864 0.047931049 0.11392556
0.079385154 0.047833756 0.11385858
0.080357343 0.047507383 0.11377861
0.081111372 0.047216609 0.11384732
0.082314484 0.047498692 0.11389218
0.08329609 0.047606628 0.11390458
0.084812343 0.047732014 0.11372002
0.085895702 0.047512416 0.11367402
0.086872548 0.047019467 0.11398646
0.087860428 0.047497835 0.11378122
0.088839076 0.047395095 0.11386707
0.089816399 0.047485035 0.1138738
0.090800881 0.047740817 0.11397302
0.091780961 0.047789313 0.11394057
0.092758365 0.047489528 0.11388543
0.093739763 0.047309604 0.11386506
0.094708286 0.047415175 0.11387856
0.096671104 0.04761697 0.11391214
0.097643599 0.047390703 0.11392853
0.098644421 0.047180593 0.11382685
0.099825345 0.047526751 0.11389814
-0.096520334 0.048007134 0.1139404
-0.095564634 0.048875675 0.11388122
-0.094881892 0.048063759 0.11395621
-0.093640067 0.048676107 0.11385868
-0.091951184 0.048185591 0.11383589
-0.090972975 0.048510406 0.11342376
-0.089519553 0.048503909 0.1135807
-0.088024706 0.048488941 0.11363669
-0.087038793 0.048599385 0.11390009
-0.086064696 0.048925322 0.11395367
-0.084801361 0.048457049 0.113685
-0.082834065 0.048563816 0.11392246
-0.081846364 0.048602767 0.11381398
-0.080874301 0.048773248 0.11386082
-0.079902455 0.048987549 0.11393831
-0.07792867 0.048184518 0.11391882
-0.036472008 0.048326779 0.11394709
-0.035677515 0.048206076 0.1138533
-0.03469947 0.0486876 0.11389242
-0.033721 0.048297752 0.11383182
-0.032738667 0.048484534 0.11375113
-0.031762775 0.048548859 0.11392135
-0.030770566 0.048907835 0.11389189
-0.029779965 0.048472576 0.11380928
-0.025861118 0.048796002 0.11390286
-0.024881838 0.048023958 0.11389834
-0.023900615 0.048065487 0.1139099
-0.021928629 0.048028011 0.11387703
-0.020946044 0.048190191 0.11372633
-0.019775415 0.048537511 0.11376828
-0.018980628 0.048385896 0.11391191
-0.017023068 0.048201472 0.11363772
-0.016051115 0.048322912 0.11370969
-0.015058081 0.048244137 0.11387863
-0.014076277 0.048490677 0.11345074
-0.013145451 0.048343621 0.11364114
-0.012102482 0.048489235 0.11374543
-0.011176446 0.048426051 0.11376347
-0.010148906 0.048506986 0.11365397
-0.0091690421 0.048403889 0.11356485
-0.0082031703 0.048553862 0.1136562
-0.0072142812 0.048478328 0.11381176
-0.0062333457 0.048551351 0.11337634
-0.0052641039 0.048205692 0.11391598
-0.0042646523 0.048272867 0.11348719
-0.0032881675 0.048509125 0.11366194
-0.0023207238 0.048182972 0.11379765
-0.001330938 0.048439626 0.11349282
-0.00040140917 0.048590235 0.11359887
0.00058750866 0.04840992 0.11391163
0.0015675536 0.048502039 0.11363167
0.0025534208 0.048483875 0.11378592
0.0035305237 0.048575379 0.1137734
0.004558926 0.048478816 0.11381657
0.0055463035 0.048502859 0.11364809
0.0065184217 0.048489783 0.11377552
0.0074962266 0.048471745 0.11372559
0.0084688365 0.048498306 0.11374199
0.0094463266 0.048457637 0.1138237
0.010425787 0.048460923 0.11370826
0.011414203 0.048530981 0.11351872
0.012398218 0.04849562 0.11376042
0.013389532 0.048496157 0.11374325
0.014363658 0.048446856 0.1137451
0.015334248 0.048596863 0.11360925
0.016311018 0.048475403 0.11382018
0.017285028 0.04848678 0.11375743
0.018267894 0.048519447 0.11353657
0.019297415 0.04853734 0.11368454
0.020275904 0.04847645 0.11353039
0.021262055 0.04849799 0.11369057
0.022240542 0.048450466 0.11363322
0.023179341 0.048469312 0.11388077
0.02415107 0.048487302 0.11383124
0.025128948 0.048543721 0.11376735
0.026145458 0.048474103 0.11382794
0.027130572 0.048490286 0.11381235
0.028152391 0.048368197 0.11386415
0.029125096 0.048393417 0.11388874
0.030046299 0.048526734 0.11348718
0.031640921 0.04835486 0.11388484
0.032970306 0.048425041 0.11386854
0.033952825 0.0481527 0.11391618
0.034929596 0.048554357 0.11384394
0.036898803 0.048198167 0.11391705
0.079384699 0.048449036 0.11389628
0.080356605 0.048516035 0.11384346
0.081437863 0.048530921 0.11381503
0.082833573 0.048754402 0.11374295
0.083295316 0.048620794 0.11389378
0.084861465 0.048523549 0.11378011
0.085895605 0.048590939 0.11371411
0.086872429 0.048477665 0.1138025
0.087860338 0.04836509 0.11397147
0.088838965 0.04847287 0.11389604
0.089816354 0.048524156 0.11350023
0.090800814 0.048837498 0.1137881
0.091772661 0.048405435 0.11384737
0.092759006 0.048517864 0.11384372
0.093739673 0.048587736 0.11397707
0.094708212 0.048567317 0.11385181
0.0956119 0.04879434 0.11394449
0.096671045 0.04849039 0.11374097
0.097643487 0.048737373 0.1138792
0.098644309 0.048689757 0.11388072
0.099820502 0.048472125 0.11386785
-0.099588685 0.049206626 0.11395714
-0.097479284 0.049589962 0.11396276
-0.096521407 0.049304634 0.1139103
-0.095565014 0.049322337 0.1138795
-0.094605558 0.049560122 0.11387394
-0.093640983 0.049731113 0.11396861
-0.090972856 0.049483441 0.1139297
-0.089386426 0.049421404 0.11367121
-0.088024624 0.049474373 0.11342982
-0.087038726 0.049499929 0.11376355
-0.086064644 0.049508262 0.11382476
-0.08509174 0.049842134 0.11399493
-0.084802143 0.049367607 0.11376551
-0.082834966 0.049701311 0.11392891
-0.081847079 0.049484015 0.11388746
-0.080874898 0.0495345 0.1138591
-0.079902843 0.049477052 0.11394276
-0.078920476 0.049633484 0.1137941
-0.077929936 0.049844932 0.11385871
-0.076950297 0.049812175 0.11378247
-0.075964436 0.049797591 0.11386885
-0.074968949 0.049959209 0.1139427
-0.073798761 0.049639136 0.113946
-0.072031938 0.049867056 0.11396541
-0.035677757 0.049016081 0.11378833
-0.032738861 0.049166791 0.11367139
-0.031762939 0.049141362 0.1138303
-0.030770697 0.04943395 0.11377189
-0.026836244 0.049360935 0.11389249
-0.025861328 0.049725175 0.11384875
-0.024882188 0.049528949 0.11397342
-0.021928851 0.049096342 0.11391878
-0.017023377 0.049917292 0.11383619
-0.016051311 0.04948134 0.11372306
-0.015058249 0.049274135 0.11391604
-0.013140527 0.049471311 0.11361824
-0.012102617 0.049511626 0.11370298
-0.011168757 0.049490053 0.11379056
-0.010149035 0.04947789 0.11373314
-0.0091691697 0.049558535 0.11348867
-0.0082032736 0.049450114 0.11363567
-0.0072188801 0.049466483 0.11378698
-0.0062330221 0.049532071 0.11371709
-0.0052514649 0.049508676 0.11357024
-0.0042632492 0.049601145 0.11376484
-0.0032888902 0.049446739 0.11368739
-0.0023078236 0.049547445 0.11357184
-0.0013310801 0.049663089 0.11366884
-0.00039117743 0.049564008 0.11344796
0.00059494318 0.049467623 0.11378252
0.001564071 0.049486533 0.11339509
0.0025562679 0.049513515 0.11380946
0.0035436426 0.049477641 0.11376076
0.0045189946 0.049473967 0.11379797
0.0055461968 0.049477398 0.11370955
0.0065183388 0.049495246 0.11361699
0.0074961442 0.049524177 0.11343528
0.0084687481 0.049516965 0.11349934
0.0094462363 0.049503814 0.1135956
0.010425698 0.049513057 0.11354791
0.011417608 0.049503509 0.11360139
0.012398156 0.049519274 0.11349234
0.013390945 0.049537361 0.11363663
0.014363553 0.049511116 0.11378391
0.015337721 0.049408376 0.11368888
0.016310943 0.049467314 0.11345614
0.017284919 0.049460866 0.11382059
0.018271282 0.049487635 0.11365065
0.019297322 0.04949927 0.11369514
0.020237863 0.049479354 0.11372756
0.021255236 0.049451109 0.1136779
0.022203434 0.049483906 0.11367355
0.023179261 0.049488474 0.11369962
0.024150975 0.04953159 0.11372036
0.025128841 0.049509127 0.11388078
0.026103813 0.0494917 0.11367261
0.027130492 0.049522582 0.11348427
0.028072096 0.049548697 0.11385289
0.029096857 0.049500246 0.11361563
0.030046185 0.049493004 0.11371335
0.03134812 0.04954318 0.11386128
0.032970194 0.04956938 0.11378465
0.03492951 0.04941066 0.11369445
0.079383962 0.049450427 0.11393499
0.080100685 0.049747437 0.1139136
0.081710376 0.049666226 0.1138007
0.082898445 0.049468983 0.11370473
0.083861046 0.049626686 0.11379585
0.084855445 0.049407821 0.11356124
0.085846081 0.049538992 0.11368988
0.086872332 0.049479041 0.11368123
0.087860242 0.049523614 0.11367371
0.088838905 0.049472179 0.11371736
0.089816242 0.049451854 0.1138703
0.090800762 0.049474467 0.11371859
0.091780879 0.049486831 0.11362979
0.092762984 0.049546108 0.11384839
0.093739636 0.049532261 0.11363263
0.094708152 0.049470048 0.11379299
0.095683388 0.049466014 0.11382163
0.096670978 0.049435474 0.11387353
0.097643442 0.049458738 0.11383424
0.098644242 0.049492676 0.1138937
0.099813707 0.049455658 0.11384987
-0.10018762 0.050655685 0.11388882
-0.099589795 0.050715789 0.11390948
-0.097480081 0.050609328 0.11385393
-0.095565706 0.050241906 0.11369485
-0.094606236 0.050423246 0.11378151
-0.090972781 0.050387442 0.11395514
-0.089619637 0.050853055 0.11391108
-0.088024527 0.05048484 0.11351976
-0.087038644 0.050486282 0.11356168
-0.086064555 0.050512809 0.11386562
-0.082835384 0.0503163 0.1136959
-0.081847914 0.050540093 0.11386323
-0.080875613 0.050482836 0.11377653
-0.079903632 0.050515272 0.11387093
-0.078921229 0.050564039 0.11386961
-0.07793045 0.050523911 0.11380234
-0.076950841 0.050530531 0.11375633
-0.07596498 0.050513133 0.11385665
-0.074969321 0.050513748 0.11383358
-0.07366886 0.050374117 0.11395881
-0.072032094 0.050167043 0.11375705
-0.071061403 0.05094621 0.11392934
-0.032545593 0.050195795 0.11349686
-0.031763341 0.050598871 0.11364911
-0.030770903 0.050322849 0.11351595
-0.029780529 0.050521147 0.11384081
-0.028801978 0.050551005 0.11368148
-0.027821861 0.050451174 0.11376664
-0.025861457 0.050496336 0.11347404
-0.024882415 0.050695647 0.11364182
-0.023901133 0.050417989 0.11385629
-0.022911094 0.050803769 0.11380904
-0.0209466 0.050975174 0.11389404
-0.019948093 0.050727714 0.11317369
-0.018735902 0.050856002 0.11323111
-0.017023491 0.05058229 0.11385541
-0.012102718 0.050271209 0.11367241
-0.011129855 0.05050353 0.11343167
-0.010149142 0.050443299 0.11364374
-0.009181858 0.050430585 0.11359877
-0.0082034077 0.050500937 0.11377618
-0.0072171506 0.050524883 0.11362883
-0.0062375618 0.050730005 0.11371809
-0.0052515757 0.050453022 0.11365928
-0.0042607263 0.050492313 0.1135704
-0.0032924728 0.050479986 0.11366923
-0.0023048834 0.050453044 0.11350675
-0.0013322479 0.050455891 0.11369494
-0.000401597 0.050529458 0.11375208
0.00058737223 0.050543468 0.1134043
0.001563955 0.050474383 0.11365221
0.0025341592 0.050427385 0.11382507
0.003530367 0.05043871 0.11377382
0.0045189266 0.050493047 0.11362607
0.0055090925 0.050539132 0.11366929
0.0065182247 0.050509516 0.11370999
0.0074960333 0.050497349 0.11350492
0.0084686344 0.050482407 0.11361897
0.0094461301 0.050481543 0.11362887
0.010425591 0.050474867 0.11368483
0.011416974 0.050495062 0.11381297
0.012400996 0.05049213 0.1138534
0.013393616 0.050493315 0.11360917
0.014360491 0.050508622 0.11368775
0.015339178 0.050417401 0.11379436
0.016313871 0.05043171 0.11359477
0.017287908 0.050534096 0.11351983
0.01827066 0.050528243 0.1135618
0.019294076 0.050495856 0.11379952
0.020275692 0.050490983 0.11376139
0.021255136 0.050500147 0.11374556
0.022203365 0.050502837 0.11349211
0.023179149 0.050578099 0.11376403
0.024150878 0.050471459 0.11371238
0.025128754 0.050518721 0.11370212
0.026103672 0.050827783 0.11371472
0.027250648 0.050556269 0.1138703
0.028072026 0.05049989 0.11365916
0.029096765 0.050466422 0.11358678
0.030048586 0.050464436 0.11380281
0.031449005 0.050544623 0.11384327
0.032970078 0.050552707 0.1138825
0.033952583 0.050563801 0.11363069
0.034929372 0.050518643 0.11393806
0.077434778 0.050807863 0.11399258
0.078409903 0.050709851 0.11391478
0.079207793 0.050738044 0.11384079
0.080100477 0.050418243 0.11382236
0.081351049 0.050508793 0.1138096
0.082913347 0.050491355 0.11372959
0.083887935 0.050456811 0.11357095
0.084811725 0.050744694 0.11376217
0.085895434 0.050533317 0.11378518
0.086872242 0.050499905 0.11371759
0.08786016 0.050501361 0.11370247
0.088838808 0.050493166 0.11375856
0.089816183 0.0504095 0.11373725
0.090800725 0.050477665 0.11358184
0.091780789 0.050512254 0.11364409
0.09276294 0.050537016 0.11379438
0.093735531 0.050512951 0.11366527
0.094709821 0.05050391 0.11375193
0.095683329 0.050490279 0.11387286
0.096670896 0.050483644 0.11385445
0.097643375 0.050275952 0.11374003
0.098644175 0.050442822 0.11381029
0.099810898 0.05038267 0.11378153
-0.10018803 0.051294435 0.11382782
-0.099590659 0.05184079 0.11393268
-0.097480617 0.051313948 0.11376911
-0.091669083 0.051271327 0.11396271
-0.090688586 0.051535577 0.11391716
-0.089677803 0.051374618 0.11381111
-0.088702828 0.051588953 0.11373511
-0.087571435 0.051813837 0.11381252
-0.086064465 0.051515084 0.11386329
-0.085091598 0.051782623 0.11373983
-0.084803812 0.051347625 0.11395206
-0.08382231 0.051549517 0.11381619
-0.081848621 0.051425092 0.11390103
-0.079904348 0.051401295 0.11390503
-0.078921884 0.051398482 0.1139129
-0.07793121 0.051502541 0.11381274
-0.076951578 0.051445682 0.11389039
-0.075965732 0.051498592 0.11388589
-0.074969865 0.051159207 0.1139739
-0.073669709 0.051539529 0.11391749
-0.071061462 0.051036209 0.11391431
-0.030771257 0.051482849 0.11369948
-0.029780785 0.051549152 0.11366685
-0.028802378 0.051934738 0.1139453
-0.027822109 0.051524676 0.11368022
-0.026836788 0.051694654 0.11380835
-0.025861705 0.051383302 0.11380386
-0.024882607 0.051570479 0.11363106
-0.02390136 0.051534597 0.1136958
-0.022911258 0.051597346 0.1137831
-0.021929361 0.051658012 0.11387894
-0.020946641 0.051452704 0.11353531
-0.019948352 0.051568665 0.11385675
-0.018981051 0.05100216 0.11373588
-0.017132815 0.051618896 0.11360916
-0.016051549 0.051034354 0.11350419
-0.01407679 0.051410638 0.11391933
-0.013095455 0.051670477 0.11396149
-0.012102904 0.051490009 0.11380395
-0.011130003 0.051335715 0.11375459
-0.010149281 0.051537436 0.11368652
-0.0091694295 0.05142156 0.11385473
-0.0082035409 0.051608153 0.11382393
-0.0072238003 0.051749606 0.1137591
-0.0062305783 0.051567353 0.11381498
-0.0052644038 0.051707748 0.11333183
-0.0042622825 0.051384024 0.1135731
-0.0032983469 0.051572543 0.11383203
-0.0023117978 0.051293217 0.1136818
-0.0013360663 0.051401265 0.11361258
-0.00039137437 0.051506463 0.11358932
0.00056795188 0.051421396 0.1136793
0.0015597682 0.051460691 0.11369056
0.002525873 0.05170678 0.11378621
0.0035830126 0.05153494 0.11365226
0.0045108441 0.051495422 0.11383671
0.0055459803 0.051575027 0.11375183
0.0065181209 0.051485091 0.11374515
0.0074959076 0.051476579 0.11371192
0.0084685152 0.051489294 0.11373686
0.0094899526 0.051471811 0.11370615
0.010428503 0.051514424 0.11359412
0.011417403 0.05153067 0.11376824
0.012397952 0.051553812 0.11361253
0.01338988 0.051489208 0.11388731
0.014363375 0.051486112 0.11371227
0.015344398 0.051661201 0.11378727
0.016313741 0.051474795 0.11377638
0.017288318 0.051528025 0.11372486
0.018271061 0.051533807 0.11368962
0.019305306 0.051455002 0.11370369
0.020282499 0.051521167 0.11374711
0.021286782 0.051582914 0.11391636
0.022240262 0.051495586 0.11372829
0.023179051 0.051480085 0.11387112
0.024150768 0.051641464 0.11363527
0.025128623 0.051677119 0.11387597
0.026103584 0.051519096 0.11393694
0.027186448 0.051130634 0.11372995
0.028071914 0.051463768 0.11384425
0.029057235 0.051491838 0.11367358
0.030042786 0.05143242 0.11376858
0.031347904 0.051799852 0.11387316
0.032970022 0.051433574 0.11346354
0.033952467 0.051581472 0.113684
0.034929384 0.051013719 0.11303559
0.036369119 0.051301003 0.11384587
0.076449998 0.051623181 0.11390192
0.077434219 0.051618952 0.11388081
0.078409351 0.051499665 0.11351836
0.079119906 0.05137692 0.113444
0.080063902 0.051489145 0.11367748
0.08158721 0.051470935 0.11383668
0.08290901 0.051505342 0.11387551
0.083891936 0.051483314 0.11371501
0.084811591 0.051544677 0.11385592
0.085895337 0.051469665 0.11397519
0.086872146 0.051524941 0.1137264
0.087860063 0.05152056 0.11374657
0.088838719 0.051507171 0.11383481
0.089816079 0.051681209 0.1138754
0.090796672 0.051489584 0.11368273
0.091780715 0.051503181 0.11386946
0.092756033 0.051461257 0.11385207
0.093731046 0.051369809 0.11387287
0.094708003 0.051367313 0.11394063
0.095688045 0.051187944 0.11391757
0.096670829 0.051511753 0.11383482
0.097643264 0.051559873 0.11387379
0.09864407 0.051634341 0.11388969
0.099702045 0.051400695 0.11387604
-0.10018539 0.052538339 0.11392465
-0.097481407 0.052124962 0.11398505
-0.096523866 0.052239634 0.11395007
-0.095567353 0.052070677 0.11396846
-0.094608337 0.052845132 0.11396571
-0.092658162 0.052308176 0.11399026
-0.091669694 0.052046314 0.11385266
-0.090689182 0.052323062 0.11372709
-0.089620687 0.052374739 0.11385377
-0.088024341 0.052500755 0.113626
-0.08703848 0.052479457 0.11338428
-0.086064391 0.052503258 0.11365823
-0.085091554 0.052502338 0.11362659
-0.084115252 0.052658036 0.11388368
-0.083651528 0.052926488 0.11398777
-0.082837388 0.052733809 0.11392155
-0.081849672 0.052728191 0.11394975
-0.080877453 0.052725755 0.1139814
-0.078922629 0.052332222 0.11396682
-0.077931657 0.052011192 0.1139936
-0.076952428 0.052529179 0.11392657
-0.075966477 0.052451093 0.11393722
-0.074971184 0.052949205 0.11391006
-0.073670313 0.052334115 0.11396538
-0.031763818 0.052128866 0.11384293
-0.030771492 0.052267838 0.11380538
-0.029781079 0.052524894 0.11385591
-0.028802469 0.052320745 0.11388332
-0.027822353 0.052362829 0.1138951
-0.026837083 0.052883934 0.11389521
-0.025861958 0.052382667 0.11395343
-0.024882792 0.052213956 0.11391259
-0.023901595 0.052458491 0.11394566
-0.022911452 0.052410189 0.11394815
-0.021929499 0.052416589 0.11377019
-0.020946894 0.052533511 0.11386637
-0.019948555 0.052631486 0.11393416
-0.018561246 0.05269653 0.11372787
-0.015058823 0.052949145 0.11379303
-0.014529306 0.052986253 0.11399604
-0.013095524 0.052399676 0.11357906
-0.012103049 0.052541863 0.11379011
-0.011130196 0.052655905 0.11392262
-0.010158786 0.052405808 0.11373542
-0.0091695571 0.052514754 0.11384594
-0.0082036424 0.052390087 0.11395093
-0.0072427592 0.052383646 0.11391824
-0.0062362729 0.052545086 0.11369456
-0.0052574426 0.052289624 0.11379033
-0.00426355 0.052427545 0.11387588
-0.0032911273 0.052453741 0.1137056
-0.0023317202 0.052608423 0.11382598
-0.0013299646 0.052499298 0.11379874
-0.00080327992 0.052511599 0.1137532
0.00055710162 0.052667033 0.11386553
0.0015546699 0.052649166 0.11358455
0.0025258281 0.052476488 0.11367273
0.0035236028 0.052521698 0.11387353
0.0044391304 0.052360673 0.11390666
0.0054924618 0.052514933 0.11378283
0.0065180007 0.052560966 0.11383975
0.0074957679 0.052674901 0.11382982
0.0084771067 0.052302819 0.11371816
0.0094986595 0.052383911 0.11370166
0.01043334 0.052450284 0.11368683
0.011421691 0.052475918 0.11382897
0.012408094 0.052431755 0.113933
0.013390641 0.05256762 0.11380367
0.014374286 0.052295044 0.11387504
0.015348103 0.052355994 0.11389606
0.016315741 0.05241086 0.11376848
0.017295206 0.052506905 0.11391609
0.018277748 0.052332483 0.1139342
0.019310631 0.052597012 0.1138207
0.020292385 0.052281238 0.11381214
0.021298224 0.052229557 0.11370197
0.022283336 0.052631009 0.11385163
0.023178967 0.052296251 0.11390254
0.02415066 0.052422941 0.11393692
0.025128571 0.052286636 0.1137977
0.026103504 0.052345775 0.11381911
0.027090043 0.052772652 0.11378901
0.028071856 0.052252341 0.11366775
0.029057151 0.052282166 0.11375266
0.030042671 0.052488793 0.11390217
0.031377226 0.052437562 0.11380743
0.068633676 0.052421968 0.11366703
0.076449662 0.052084863 0.11398964
0.077162065 0.052321859 0.11388142
0.078095078 0.052349854 0.11393404
0.079102144 0.052598663 0.1137443
0.080099955 0.052482542 0.11385546
0.081851296 0.052412771 0.11384101
0.082881704 0.052349959 0.1138609
0.083876789 0.052529741 0.11385673
0.084920302 0.052505679 0.11391352
0.085895255 0.052481547 0.11386006
0.086791955 0.052399922 0.11394971
0.087859966 0.052486923 0.11383846
0.088838637 0.052457493 0.11379179
0.089816011 0.052443821 0.11393578
0.090792283 0.052386831 0.1139086
0.091753811 0.052304339 0.11387134
0.092757158 0.052515622 0.11390419
0.093052305 0.052899569 0.11389903
0.094028592 0.052889794 0.11393156
0.096670762 0.052398227 0.113865
0.097643226 0.052077368 0.11390945
0.098644003 0.05248392 0.11395518
0.099807478 0.052464593 0.11390451
-0.10018821 0.053317048 0.11397884
-0.098480433 0.053979855 0.11395357
-0.0974828 0.05388495 0.11384157
-0.094745301 0.053925693 0.11393701
-0.093644328 0.053741112 0.11396832
-0.089698926 0.053533118 0.11388049
-0.088024236 0.05351622 0.11380732
-0.087038368 0.053496733 0.11357059
-0.086064301 0.053502798 0.11360362
-0.085091464 0.05351007 0.11366834
-0.08411517 0.053574562 0.11385572
-0.083135709 0.053123608 0.11397901
-0.082837626 0.053048808 0.11389156
-0.080878042 0.053485755 0.11394321
-0.079905838 0.053257551 0.11398806
-0.077932686 0.053344939 0.11397478
-0.076953173 0.05350418 0.11393385
-0.075967036 0.053163595 0.11399969
-0.074971333 0.053121708 0.11395504
-0.029781288 0.053361148 0.11373094
-0.028802766 0.053410739 0.11397039
-0.02782258 0.053338666 0.11380933
-0.026837196 0.053357679 0.11391713
-0.025862182 0.05333183 0.11396483
-0.024883052 0.053428125 0.113832
-0.022911692 0.053595014 0.11389884
-0.020947054 0.053444184 0.11376822
-0.019948678 0.053351372 0.11390802
-0.018281346 0.053519428 0.11390109
-0.017023964 0.053379424 0.11391146
-0.016051967 0.053283323 0.11392939
-0.015058892 0.053328138 0.11386406
-0.013095711 0.053502493 0.11376014
-0.012103185 0.053465083 0.11386434
-0.011130254 0.053208582 0.11380401
-0.010149518 0.053236056 0.11393747
-0.0091788908 0.053474866 0.11379187
-0.0072148577 0.053512812 0.11389624
-0.0062364144 0.053608425 0.11392404
-0.0053663799 0.053504005 0.11374649
-0.0043109651 0.053546894 0.11395102
-0.0033378929 0.053486198 0.11382589
-0.0024198226 0.05313991 0.11389679
-0.0013557589 0.053489991 0.11372379
-0.00046876242 0.053506814 0.11380538
0.00057580293 0.05346315 0.11388874
0.0015402799 0.05357023 0.11377516
0.0023622573 0.053530045 0.11388379
0.0031085929 0.053476281 0.113879
0.0045584384 0.053224076 0.11392309
0.0054496722 0.053437315 0.11373085
0.0060404106 0.053593826 0.11388986
0.0073793689 0.053187869 0.11389199
0.0085574389 0.053500719 0.1139246
0.0095043965 0.05364161 0.11374286
0.010439429 0.053324059 0.11376086
0.011427742 0.053489584 0.11376607
0.012405626 0.053526588 0.11362047
0.013391707 0.053405572 0.11384678
0.014380333 0.053443462 0.1138875
0.015344219 0.053360604 0.11387113
0.016315605 0.053577088 0.11389033
0.017414663 0.053129978 0.11393569
0.018298894 0.053237598 0.11391566
0.019354094 0.053646497 0.11390974
0.020484112 0.053361557 0.11393562
0.021298103 0.053344816 0.11390615
0.022202995 0.053859375 0.113977
0.023178836 0.05359583 0.11395058
0.024150601 0.053078663 0.11384484
0.025128426 0.053655792 0.11386365
0.026103372 0.053587019 0.11385922
0.027089974 0.053368397 0.11389394
0.028071705 0.053704329 0.11377889
0.029057045 0.053189814 0.11392874
0.030042598 0.053397015 0.1138109
0.031024646 0.053236343 0.11388829
0.077085957 0.053259395 0.1137918
0.078407913 0.053504657 0.11349306
0.079119347 0.053799272 0.11382475
0.080099732 0.053335264 0.11378058
0.081619456 0.053594407 0.11387185
0.082897879 0.053469915 0.11384586
0.083876632 0.053635556 0.11393334
0.084702194 0.05320172 0.11393636
0.085766114 0.053507615 0.11389714
0.086871907 0.053946976 0.11388706
0.087859891 0.053283673 0.11386137
0.088729911 0.053587127 0.11389355
0.08974272 0.053361569 0.11396206
0.090726048 0.053100437 0.11394077
0.091108985 0.053266887 0.11386081
0.092757978 0.053478077 0.11394575
0.093711875 0.053673644 0.11390515
0.094537959 0.053799175 0.11396512
0.096740484 0.053941756 0.11399661
0.09764313 0.053352997 0.11387266
0.098643906 0.05363702 0.11388396
0.099713661 0.053589217 0.11389092
-0.10018402 0.054587763 0.11389831
-0.097483009 0.054094955 0.11391738
-0.094677366 0.054092288 0.11392193
-0.093644589 0.054048613 0.1139783
-0.092660308 0.054898169 0.11393508
-0.088024162 0.054349642 0.1139775
-0.087038256 0.054519016 0.11381734
-0.086064212 0.054515079 0.11369902
-0.085091382 0.054512337 0.11365056
-0.084115095 0.054525871 0.11383323
-0.083135597 0.054581109 0.11393768
-0.079906799 0.054525878 0.11384799
-0.078924224 0.054372936 0.11396135
-0.077933893 0.054906189 0.11397097
-0.076953709 0.054202929 0.11390399
-0.075968213 0.054728594 0.11394586
-0.028803026 0.054489743 0.11383919
-0.027683612 0.054765221 0.11390921
-0.026837444 0.054483384 0.11375505
-0.025862508 0.054807674 0.1138306
-0.02488333 0.054625958 0.11385777
-0.023902074 0.054606736 0.11398032
-0.020869892 0.054551058 0.1139247
-0.01994879 0.054384023 0.11345512
-0.018328141 0.054280061 0.11383793
-0.017024199 0.05476895 0.11393493
-0.016052209 0.054786827 0.11385202
-0.014077334 0.054780629 0.11399964
-0.01309588 0.0544536 0.11396297
-0.012221306 0.054675095 0.1139133
-0.01113046 0.054765083 0.11382113
-0.010200734 0.054285005 0.11391128
-0.0096217282 0.05412516 0.11387888
-0.0082039107 0.054707583 0.11393531
-0.0076629641 0.054562673 0.11390131
-0.0062591932 0.054207008 0.11392043
-0.0053028478 0.054242164 0.11376945
-0.004277017 0.054720044 0.11384787
-0.0033043798 0.054148037 0.11391278
-0.0023547341 0.054648191 0.11390949
-0.0013558734 0.054522634 0.11392166
-0.00043170821 0.054705948 0.11387849
0.00054193998 0.054640569 0.1138912
0.0011544069 0.054477882 0.11380401
0.0023622564 0.054295272 0.11386947
0.003464191 0.054400139 0.11382163
0.0044787535 0.054796174 0.11381173
0.0054495679 0.054597419 0.11377124
0.006358678 0.054563403 0.11391417
0.0073792958 0.054266773 0.11385719
0.0084553547 0.054580957 0.11380652
0.0094984584 0.054409683 0.11383353
0.01048166 0.054724902 0.11395726
0.011469766 0.054098647 0.11389157
0.012402691 0.054421671 0.11382059
0.013399214 0.054207444 0.11374865
0.014366312 0.054493979 0.11383009
0.015390732 0.05449751 0.11380874
0.016342534 0.054627672 0.11393885
0.017305207 0.054381024 0.11395661
0.018771974 0.054168765 0.11396918
0.019326007 0.054512672 0.11386253
0.020336026 0.054490793 0.1139678
0.021217663 0.054851346 0.11387993
0.022202965 0.054420643 0.11379705
0.023178738 0.054668333 0.11391318
0.024150437 0.05462366 0.11392167
0.025128342 0.054503504 0.11385498
0.026103271 0.054474402 0.11394033
0.027089877 0.054520492 0.11371551
0.030042568 0.054142993 0.11352215
0.076447785 0.054768186 0.11390171
0.077432163 0.054525089 0.11369248
0.078065448 0.054531589 0.11384463
0.079063721 0.054556206 0.1137806
0.08005733 0.054586761 0.11384476
0.081251934 0.054562967 0.11381121
0.08230938 0.054307695 0.11391228
0.083869301 0.054413117 0.11385433
0.08478912 0.054448873 0.11381912
0.085572287 0.054075152 0.11398859
0.086871862 0.054441355 0.11386461
0.087859772 0.054531466 0.11385635
0.088838458 0.054417979 0.11389393
0.089810394 0.054557882 0.11394688
0.09063264 0.054547459 0.1139644
0.091753624 0.054630585 0.1139138
0.09275423 0.054525927 0.11391168
0.093711816 0.054216318 0.1139439
0.094707802 0.054446477 0.11397003
0.095687829 0.054346193 0.1139278
0.096670598 0.054541968 0.11395641
0.097643048 0.054492373 0.11384338
0.099705108 0.054401714 0.11397441
-0.10018639 0.05553462 0.11384328
-0.096526347 0.055222135 0.11395151
-0.087038174 0.055449378 0.11379911
-0.086064123 0.055431139 0.11376633
-0.085091285 0.055529166 0.11384731
-0.084115006 0.055529058 0.11381909
-0.08313553 0.055466108 0.11387074
-0.080879368 0.055259239 0.11371624
-0.079907894 0.055885047 0.1139604
-0.077934243 0.055417851 0.11382344
-0.076955006 0.055889182 0.11393015
-0.074973136 0.055526707 0.11394739
-0.069091283 0.055587541 0.11387289
-0.026837636 0.055191435 0.11393787
-0.025862571 0.055067673 0.11385163
-0.024883518 0.055487964 0.11381081
-0.023902237 0.055383492 0.11390986
-0.022912119 0.055588759 0.11394835
-0.020405572 0.05525931 0.11388115
-0.018328354 0.055437278 0.1139608
-0.017024344 0.055627275 0.11395666
-0.01605236 0.055645987 0.11390709
-0.015059241 0.055459965 0.11395324
-0.013186632 0.055312097 0.11386452
-0.012575036 0.055407643 0.11396223
-0.011363966 0.055520721 0.11396931
-0.010149791 0.055492055 0.11390244
-0.0092201056 0.055452291 0.11392846
-0.0086448984 0.055709183 0.11394038
-0.0072647743 0.055205364 0.11353886
-0.0066837692 0.055290092 0.11396067
-0.0053029512 0.055249538 0.11390647
-0.0047364538 0.055499669 0.11388719
-0.0033380778 0.055537056 0.11386404
-0.0023214025 0.055311661 0.11383631
-0.0017893359 0.055458087 0.11393474
-0.00043177325 0.055667669 0.11384106
0.00051938411 0.055652171 0.11367993
0.0013794501 0.055381373 0.11388446
0.00249944 0.055413455 0.11394967
0.003345638 0.055465803 0.11392641
0.0044787196 0.055403847 0.11370558
0.0054769525 0.055498388 0.11378628
0.0063586743 0.055500925 0.11368712
0.0074290573 0.055249717 0.11384511
0.0084740296 0.055318445 0.11385322
0.0095511395 0.055388391 0.1138375
0.010439195 0.055705648 0.11382148
0.01153978 0.055844061 0.11391065
0.012417668 0.055548321 0.11394699
0.013399087 0.055423107 0.11386587
0.014370256 0.055643611 0.11392046
0.015462061 0.055314332 0.11381875
0.016825553 0.055346996 0.11386693
0.017284228 0.055760853 0.11397489
0.018267132 0.05539215 0.11379561
0.019255938 0.055102523 0.11367162
0.020237297 0.055061609 0.11393855
0.021217622 0.055348851 0.11383747
0.022202872 0.055343553 0.1138638
0.025128249 0.055389125 0.11387382
0.026103206 0.055105761 0.11396059
0.070214935 0.05511114 0.11388572
0.076447338 0.055406719 0.11388039
0.077431455 0.055534646 0.11378369
0.078406446 0.055525128 0.11364185
0.079147853 0.055238023 0.11377493
0.08005251 0.055385374 0.11390972
0.081748366 0.055226278 0.11388265
0.082308657 0.055270206 0.1139713
0.083615839 0.055294514 0.11398292
0.084920049 0.055581231 0.11398713
0.08589498 0.055493664 0.11395367
0.08687178 0.055232808 0.11392716
0.087728068 0.055462115 0.11395643
0.088838384 0.055263974 0.11399101
0.08974243 0.055214345 0.11398798
0.090128772 0.055683207 0.11390031
0.091612071 0.055332839 0.11399191
0.092686407 0.055162702 0.11383561
0.093050502 0.055317897 0.11387525
0.09469384 0.055467766 0.11394358
0.095687747 0.055559196 0.11386705
0.096670561 0.055094466 0.11397644
0.097642988 0.055149037 0.11391468
0.09864378 0.055270582 0.11397374
0.099883497 0.055754695 0.11376335
-0.10018637 0.056452703 0.11391767
-0.087038092 0.056259945 0.11392806
-0.085091211 0.056353796 0.1138962
-0.084114917 0.056635533 0.11382282
-0.083135456 0.056469228 0.11386193
-0.079908028 0.056077544 0.11389288
-0.077934854 0.056153689 0.1139534
-0.068106249 0.056599643 0.11398825
-0.023902396 0.056075484 0.11397541
-0.018001758 0.05635985 0.11391608
-0.017024552 0.056894783 0.11392425
-0.016052473 0.056381334 0.11381765
-0.015059395 0.056444138 0.11391832
-0.014529089 0.056271255 0.1139909
-0.013096149 0.056322154 0.11382937
-0.010149847 0.05622483 0.11362525
-0.0092829205 0.056636427 0.11379758
-0.0086448481 0.056449462 0.1138684
-0.0076628518 0.056133673 0.11395975
-0.0062311036 0.056197345 0.11381418
-0.0052521811 0.056149814 0.11357518
-0.004377624 0.056213528 0.11396682
-0.0033381626 0.05658038 0.11394515
-0.0023027831 0.056764711 0.11386655
-0.0017892907 0.056263946 0.11389271
-0.00035765205 0.056835055 0.11392844
0.00040689917 0.056550305 0.11393324
0.0014918364 0.05662629 0.11381981
0.002133582 0.056469772 0.11395989
0.0033456306 0.056450799 0.11394417
0.004081124 0.056534909 0.11380208
0.005449424 0.056428302 0.11390255
0.00635859 0.056627795 0.11370636
0.0070305029 0.056770135 0.11390779
0.0087127704 0.056223147 0.11382449
