# .PCD v0.7 - Point Cloud Data file format
VERSION 0.7
FIELDS x y z
SIZE 4 4 4
TYPE F F F
COUNT 1 1 1
WIDTH 1355
HEIGHT 1
VIEWPOINT 0 0 0 1 0 0 0
POINTS 1355
DATA ascii
-0.0009136218 0.034127265 0.11440913
-0.00024147613 0.034194447 0.11440831
6.1919636e-05 0.034264941 0.11440812
0.0007381661 0.034373019 0.11440747
0.001054432 0.034264211 0.11440641
0.0020234685 0.034220345 0.11440454
0.0026994578 0.034281295 0.11440367
0.0030167475 0.034220506 0.11440284
0.0039980016 0.034347195 0.11440176
0.0049289521 0.03426503 0.11439977
0.0059072799 0.034271903 0.11439812
0.0068844426 0.034272507 0.11439645
0.0078319758 0.034397356 0.11439542
0.0088363923 0.034232609 0.1143929
0.009813224 0.034231111 0.11439122
0.010796537 0.034254126 0.11438964
0.011787264 0.034278959 0.11438806
0.012486415 0.034257326 0.11438677
0.012816241 0.034223571 0.11438604
0.013460731 0.034216143 0.11438489
0.013803235 0.034233849 0.11438439
0.014443038 0.034265481 0.11438344
0.014776254 0.034231517 0.11438271
0.015430368 0.034219749 0.11438152
0.015751626 0.034442049 0.11438203
0.016404906 0.03426208 0.11438006
0.016730955 0.034261096 0.1143795
0.017386589 0.034271952 0.11437842
0.017705437 0.034267135 0.11437785
0.018366158 0.034136351 0.11437609
0.018692411 0.034390662 0.11437674
0.01933587 0.034251757 0.11437497
0.019671764 0.034242924 0.11437435
0.020319639 0.034419641 0.11437409
0.020656791 0.034238715 0.11437265
0.021291619 0.034153409 0.11437115
0.021639114 0.034246262 0.11437099
0.022262825 0.034265477 0.11437001
0.022619085 0.034275617 0.11436945
0.023255354 0.034242533 0.11436821
0.023594383 0.034135699 0.11436711
0.024228951 0.034245275 0.11436654
0.024567043 0.034269806 0.11436608
0.025209894 0.034270927 0.11436499
0.025549039 0.034281593 0.11436445
0.026196949 0.034269344 0.11436328
0.027159669 0.034262173 0.11436159
0.02813964 0.034237672 0.1143598
0.029473677 0.034436721 0.11435845
0.031397846 0.034099001 0.11435355
0.032392044 0.03432598 0.11435292
0.033391353 0.034308106 0.11435112
0.034278832 0.0341013 0.11434861
0.035962395 0.034265012 0.1143465
0.042818476 0.0342975 0.11433489
0.043793067 0.034340184 0.11433341
0.04476025 0.034058742 0.11433042
0.049649294 0.034229647 0.11432284
0.050050389 0.034397312 0.11432295
0.078979671 0.034333557 0.114273
0.079953738 0.034223247 0.1142708
0.080433123 0.034275148 0.11427023
0.080930419 0.034223042 0.11426912
0.081424803 0.034038246 0.11426739
0.081906438 0.034287665 0.11426774
0.082402907 0.034267906 0.11426681
0.083379626 0.034293078 0.11426525
0.084357202 0.0343519 0.11426385
0.085332543 0.034231912 0.1142616
0.08630874 0.034270238 0.11426011
0.087292053 0.034272756 0.11425844
0.088277616 0.034475897 0.11425771
0.089255415 0.034303252 0.1142552
0.091216154 0.034255452 0.11425161
0.093176946 0.034265485 0.1142483
0.094157606 0.034395132 0.11424723
0.099864267 0.034243852 0.11423672
-0.10012958 0.034759771 0.11458245
-0.099976026 0.03482252 0.11458248
-0.096284844 0.034831218 0.11457619
-0.095300362 0.034758572 0.11457415
-0.07961043 0.034879729 0.1145478
-0.078641877 0.03477183 0.11454561
-0.050218266 0.034802593 0.11449698
-0.049090747 0.034714188 0.11449463
-0.048073553 0.034746319 0.11449303
-0.04709024 0.034759458 0.11449141
-0.04610566 0.034761976 0.11448973
-0.045119289 0.034731373 0.11448789
-0.044147678 0.034777813 0.11448644
-0.043113764 0.03483142 0.11448492
-0.041161478 0.034925934 0.11448202
-0.040178876 0.034811866 0.1144798
-0.039195694 0.034850363 0.11447829
-0.038213227 0.03493017 0.11447699
-0.037224993 0.034782432 0.11447458
-0.036507685 0.034778524 0.11447334
-0.036236223 0.034721233 0.1144726
-0.035527129 0.034640808 0.114471
-0.035255566 0.034726407 0.11447094
-0.034277525 0.034723971 0.11446925
-0.033563346 0.034595497 0.11446741
-0.033297095 0.034758475 0.11446773
-0.032319568 0.034733299 0.11446592
-0.030346844 0.034798894 0.11446286
-0.028667374 0.03456739 0.11445887
-0.028378233 0.034574643 0.1144584
-0.026418785 0.034619998 0.11445526
-0.024456769 0.034775861 0.11445264
-0.023759242 0.034878854 0.11445193
-0.022493977 0.034803558 0.1144494
-0.020521406 0.034777254 0.11444589
-0.018558254 0.034818918 0.11444272
-0.017579161 0.034946058 0.11444165
-0.016606174 0.034580693 0.11443823
-0.015626309 0.034728464 0.11443726
-0.014637019 0.034944039 0.11443658
-0.013662717 0.03475954 0.11443403
-0.01267087 0.034765489 0.11443236
-0.011689347 0.03463212 0.11443004
-0.010714838 0.034763977 0.11442899
-0.010042991 0.034959503 0.11442878
-0.0097291544 0.034720194 0.11442709
-0.0087556196 0.034679521 0.11442523
-0.0080812806 0.034794025 0.11442462
-0.0077802818 0.034773275 0.114424
-0.0071038869 0.034832057 0.11442312
-0.0067929896 0.034774143 0.11442231
-0.0058098668 0.034728415 0.11442041
-0.0051455898 0.034831326 0.11441975
-0.0048229843 0.034795113 0.11441903
-0.0038438316 0.034731332 0.11441705
-0.0028664023 0.034767121 0.11441553
-0.0022101868 0.03472776 0.11441422
-0.0018824051 0.034731474 0.11441369
-0.00091360993 0.034764051 0.11441217
-0.00024140501 0.034828525 0.11441133
6.2095089e-05 0.034774669 0.11441056
0.00073843438 0.034717299 0.11440912
0.001054425 0.034811169 0.11440902
0.0017174467 0.034729086 0.11440749
0.0020235444 0.034725677 0.11440695
0.002699754 0.034761846 0.11440596
0.0030170255 0.034738991 0.1144053
0.003998152 0.034765702 0.11440375
0.0049210764 0.034727827 0.11440198
0.0059153009 0.034723703 0.11440026
0.0068767355 0.034799624 0.11439897
0.0078318957 0.034790408 0.11439729
0.0088260043 0.034739442 0.11439534
0.0098204548 0.034732763 0.11439361
0.01077007 0.034614295 0.1143914
0.011779062 0.034769997 0.11439041
0.01248614 0.034673147 0.11438874
0.012816462 0.034736544 0.11438848
0.013460964 0.034745481 0.11438741
0.013803479 0.034748096 0.11438683
0.014443156 0.034667399 0.11438536
0.014776459 0.034742855 0.11438514
0.015430463 0.034713976 0.11438388
0.015751759 0.034772109 0.11438361
0.016404832 0.034722287 0.11438225
0.01673086 0.034755196 0.11438185
0.017386829 0.034753744 0.11438071
0.017705312 0.034759823 0.1143802
0.018692434 0.034800496 0.11437869
0.019335551 0.03482087 0.11437769
0.019672006 0.034667194 0.11437637
0.020319641 0.034734093 0.11437558
0.020657042 0.03475428 0.1143751
0.021639045 0.034741819 0.11437336
0.022262817 0.03461127 0.11437166
0.022619132 0.034778718 0.11437185
0.023594251 0.034945827 0.11437097
0.024229055 0.034735739 0.11436888
0.026196649 0.034699082 0.11436533
0.027159628 0.034762975 0.11436398
0.028139496 0.034792066 0.11436244
0.03046618 0.034772549 0.11435836
0.031071471 0.034729939 0.11435711
0.032414906 0.034576371 0.11435407
0.033391614 0.034778301 0.11435337
0.034278806 0.034873433 0.11435229
0.035962485 0.034724493 0.11434869
0.038890962 0.034931056 0.11434465
0.039872259 0.034889869 0.11434277
0.042818442 0.034699012 0.1143368
0.043792911 0.034751005 0.11433538
0.046141528 0.03492938 0.11433219
0.047126628 0.034837633 0.11433007
0.048101988 0.034896147 0.11432867
0.049649514 0.034699664 0.11432508
0.050050572 0.034773082 0.11432474
0.07945051 0.034892984 0.11427485
0.079953231 0.034732431 0.11427322
0.080432951 0.034810472 0.11427277
0.080930077 0.034721296 0.11427149
0.081906304 0.034728125 0.11426985
0.082402922 0.03476895 0.11426919
0.083379522 0.034669593 0.11426704
0.08435753 0.034690965 0.11426546
0.084846072 0.034883026 0.11426554
0.085332774 0.034745693 0.11426405
0.085831091 0.034887604 0.11426387
0.086308658 0.034672856 0.11426203
0.087292112 0.034775808 0.11426083
0.08827772 0.034710556 0.11425883
0.089255527 0.034762874 0.1142574
0.09023878 0.03476489 0.11425573
0.091216184 0.034779046 0.11425411
0.092196748 0.034936324 0.11425318
0.093177095 0.03477402 0.11425073
0.094157539 0.034618605 0.1142483
0.095128231 0.034710716 0.11424708
0.099870153 0.034736767 0.11423905
-0.10014407 0.035249412 0.1145848
-0.099961184 0.035277165 0.11458462
-0.098250695 0.035418909 0.11458237
-0.097273789 0.035287146 0.11458006
-0.09628468 0.035229996 0.11457809
-0.095223404 0.035281941 0.11457651
-0.094313078 0.035353318 0.1145753
-0.079610281 0.035143137 0.11454906
-0.078642152 0.035241913 0.11454786
-0.049998 0.03522208 0.11449861
-0.04901541 0.035232458 0.11449697
-0.048068576 0.035256471 0.11449546
-0.047084969 0.035257075 0.11449377
-0.046100125 0.035260778 0.1144921
-0.045140717 0.035127353 0.11448982
-0.044096902 0.035240095 0.11448856
-0.043150783 0.035278834 0.11448713
-0.042184003 0.035325099 0.11448568
-0.041195739 0.035231542 0.11448354
-0.040178988 0.035267547 0.11448197
-0.039195858 0.035255402 0.11448022
-0.038255438 0.035228249 0.11447848
-0.037225455 0.035263497 0.11447688
-0.036507703 0.035238661 0.11447553
-0.036236547 0.035255771 0.11447515
-0.035255853 0.035262547 0.11447349
-0.034277871 0.035164915 0.11447135
-0.033297271 0.035207562 0.11446987
-0.032575998 0.035218298 0.11446869
-0.032319717 0.03523064 0.11446829
-0.031335298 0.035299357 0.11446694
-0.030621896 0.0354704 0.11446653
-0.030346684 0.035266075 0.11446509
-0.02837842 0.035024818 0.11446055
-0.027680574 0.035423487 0.11446126
-0.027393697 0.035255864 0.11445997
-0.025439773 0.035314288 0.1144569
-0.024457034 0.035173807 0.11445454
-0.023759186 0.035193257 0.11445343
-0.023477308 0.035266731 0.11445329
-0.021509947 0.035031784 0.11444879
-0.020521576 0.035269961 0.11444824
-0.019538671 0.035218686 0.1144463
-0.018558515 0.035305612 0.11444503
-0.017579107 0.035266615 0.11444318
-0.016606249 0.035307229 0.1144417
-0.015626438 0.035269395 0.11443984
-0.01463689 0.035271067 0.11443815
-0.013662721 0.035261683 0.11443643
-0.012723882 0.035282653 0.11443491
-0.011689627 0.035482541 0.11443409
-0.010714884 0.035306249 0.11443157
-0.010042981 0.03527803 0.11443029
-0.009729296 0.03525871 0.11442966
-0.0087558804 0.035481613 0.11442905
-0.0080812071 0.035293922 0.114427
-0.0077803079 0.035134565 0.11442572
-0.0071039186 0.035473946 0.11442617
-0.0067931432 0.035265896 0.11442465
-0.0061253728 0.035193931 0.11442316
-0.0058098403 0.035275687 0.11442301
-0.0051455125 0.035192832 0.11442148
-0.0048229648 0.035219945 0.11442105
-0.0041707945 0.035223998 0.11441996
-0.0038439468 0.035225824 0.11441941
-0.0031882846 0.035378128 0.114419
-0.0028662116 0.03523251 0.11441775
-0.0022102685 0.035237081 0.11441665
-0.0018827241 0.035258818 0.1144162
-0.00091372908 0.03525722 0.11441452
-0.00024141461 0.035331979 0.11441372
6.2182e-05 0.035235308 0.11441274
0.00073844811 0.035219841 0.11441151
0.0010545891 0.035228882 0.114411
0.0017173075 0.035149556 0.11440949
0.0020234755 0.035266548 0.11440953
0.0026997444 0.035173606 0.11440793
0.0030168884 0.035230875 0.11440764
0.003998552 0.03519683 0.1144058
0.0049213395 0.035242066 0.11440443
0.0059150704 0.035256334 0.11440279
0.0068845232 0.035270266 0.1144012
0.0078583211 0.035234962 0.11439937
0.0088365581 0.035225969 0.11439764
0.0098202415 0.035257738 0.1143961
0.010785945 0.035299134 0.11439463
0.011779172 0.035235554 0.11439263
0.012486144 0.035143167 0.11439098
0.012816563 0.035241496 0.11439088
0.013461079 0.035328493 0.11439018
0.013803646 0.03525855 0.11438926
0.014443145 0.03521369 0.11438796
0.014776151 0.035272669 0.11438767
0.015430364 0.035223097 0.11438631
0.015751874 0.035232678 0.11438579
0.016404841 0.035250258 0.11438476
0.016730888 0.035257652 0.11438424
0.017386638 0.035267767 0.11438317
0.017705211 0.035030011 0.11438148
0.018366167 0.035363745 0.11438194
0.018692467 0.035212297 0.11438066
0.019335531 0.035276636 0.11437986
0.01967195 0.035254192 0.11437917
0.020657159 0.035230532 0.11437736
0.021639114 0.035247028 0.11437576
0.022619337 0.035244092 0.11437406
0.023255162 0.035436653 0.11437389
0.023594379 0.03522842 0.11437232
0.024229072 0.035233095 0.11437125
0.024567293 0.035328876 0.11437114
0.025209548 0.035110738 0.11436899
0.026196558 0.035339195 0.11436838
0.027159298 0.035283938 0.11436646
0.029117864 0.035426952 0.11436378
0.030458279 0.035263047 0.1143607
0.031071188 0.035254534 0.11435961
0.032049507 0.035152715 0.11435745
0.033381399 0.035221092 0.11435548
0.034327313 0.035274498 0.11435411
0.034985673 0.035195652 0.11435261
0.035350706 0.035297245 0.11435246
0.035962071 0.035024509 0.11435012
0.038891014 0.035149503 0.11434569
0.039872151 0.035030086 0.11434343
0.04379287 0.035289921 0.11433794
0.045736708 0.035389286 0.11433508
0.046141509 0.035334323 0.11433412
0.048102189 0.035223056 0.11433023
0.048672747 0.035470359 0.11433043
0.049077109 0.035120465 0.11432806
0.049649045 0.035175975 0.11432736
0.05005078 0.035238434 0.11432695
0.07800857 0.035271853 0.11427913
0.07897906 0.03532701 0.11427773
0.079952724 0.035216868 0.11427552
0.080432929 0.035125479 0.11427427
0.080929421 0.035285302 0.11427417
0.08142487 0.035223853 0.11427303
0.081905775 0.035238359 0.11427228
0.082403019 0.035228599 0.11427138
0.083379835 0.035202026 0.11426957
0.084357582 0.035329074 0.1142685
0.085332721 0.035244208 0.11426643
0.085830986 0.035022572 0.11426451
0.086308785 0.035271578 0.11426488
0.087292016 0.03522395 0.11426297
0.088277817 0.035445131 0.11426234
0.089255393 0.035255425 0.11425974
0.090238653 0.035210136 0.11425784
0.091216169 0.035254393 0.11425637
0.092196807 0.035210118 0.11425448
0.093176931 0.035174131 0.11425263
0.099869423 0.035265766 0.11424157
-0.100145 0.035760414 0.11458724
-0.099955976 0.035776187 0.11458699
-0.098250382 0.035761416 0.11458399
-0.097273596 0.035775367 0.11458239
-0.096284516 0.035722811 0.11458044
-0.095300011 0.035741184 0.11457883
-0.094313301 0.035871595 0.11457776
-0.093346223 0.03578341 0.11457568
-0.07864219 0.035690483 0.11455
-0.049015857 0.03571675 0.11449928
-0.048073836 0.035773151 0.11449791
-0.047090422 0.035753969 0.11449615
-0.046105918 0.035721723 0.1144943
-0.045077119 0.035751559 0.11449268
-0.044160563 0.035722826 0.11449097
-0.043156903 0.035759058 0.11448942
-0.042217139 0.035679173 0.11448742
-0.041161649 0.03574359 0.11448592
-0.040179584 0.035741773 0.11448423
-0.039195772 0.03576738 0.11448266
-0.03825542 0.035786971 0.11448114
-0.037225571 0.03576304 0.11447927
-0.036236316 0.035776105 0.11447762
-0.035526898 0.035858672 0.1144768
-0.035256322 0.035880726 0.11447643
-0.034277931 0.035898246 0.11447485
-0.033297308 0.035757236 0.11447249
-0.032576069 0.035682347 0.11447089
-0.032319751 0.035642654 0.11447026
-0.031595271 0.035908945 0.1144703
-0.031335372 0.035754215 0.11446911
-0.030621864 0.035742346 0.11446782
-0.030346943 0.035756715 0.11446742
-0.029365102 0.035923164 0.11446653
-0.028667262 0.035882287 0.11446513
-0.028378494 0.035752535 0.11446401
-0.027680483 0.035598256 0.11446209
-0.027393773 0.035619158 0.1144617
-0.025440067 0.035755787 0.11445899
-0.024743326 0.035749398 0.11445776
-0.024457399 0.035841849 0.11445771
-0.023759194 0.035926439 0.11445692
-0.023477191 0.035729088 0.1144555
-0.022494171 0.035889726 0.11445457
-0.020521779 0.035577822 0.11444971
-0.019538615 0.035859931 0.11444936
-0.017578917 0.03578008 0.11444562
-0.015626691 0.035758171 0.11444216
-0.014636973 0.035766583 0.11444051
-0.013662845 0.035754465 0.11443877
-0.012716535 0.035702173 0.11443691
-0.011689614 0.035789069 0.11443555
-0.011026733 0.03565751 0.11443379
-0.01071505 0.035753191 0.11443371
-0.010043057 0.035650656 0.11443207
-0.009729092 0.035773035 0.11443211
-0.0087556774 0.035768006 0.11443041
-0.0077806031 0.035755809 0.11442868
-0.0071037943 0.03574064 0.11442745
-0.006793248 0.035761025 0.11442702
-0.0061251787 0.035729218 0.11442572
-0.0058101299 0.035736717 0.1144252
-0.0051455712 0.035928138 0.11442497
-0.0048227059 0.035737477 0.11442352
-0.004170977 0.035832968 0.11442286
-0.0038439017 0.035682585 0.11442158
-0.0031883055 0.035561547 0.11441987
-0.002866202 0.035733346 0.11442015
-0.0022103135 0.03583565 0.1144195
-0.0018826049 0.035765879 0.11441861
-0.0012244298 0.035881337 0.11441803
-0.0009137626 0.035778411 0.114417
-0.00024141048 0.035562009 0.11441482
6.1933919e-05 0.035720311 0.11441506
0.00073856371 0.035713084 0.11441386
0.001054496 0.035724487 0.11441337
0.0020235651 0.035771683 0.11441193
0.0030169019 0.03573237 0.11441004
0.0039162552 0.035824567 0.11440893
0.0048943963 0.035678923 0.11440656
0.0059072021 0.035784025 0.11440533
0.0069306409 0.035757914 0.11440344
0.0078584244 0.035675772 0.11440147
0.0088440143 0.035731897 0.11440004
0.0098129427 0.035762195 0.11439852
0.01080406 0.03574932 0.11439675
0.011779509 0.035740778 0.11439504
0.012486281 0.035727806 0.11439377
0.012816548 0.035742741 0.11439327
0.013460693 0.0357223 0.11439206
0.013803488 0.035750337 0.1143916
0.014443063 0.03572043 0.11439037
0.014775757 0.035725646 0.11438982
0.015430345 0.035724323 0.11438869
0.015752042 0.03574476 0.11438823
0.016404992 0.035758819 0.11438719
0.016730882 0.035757855 0.11438663
0.017386567 0.035728209 0.11438536
0.017705301 0.035761572 0.11438496
0.018366324 0.035760771 0.11438383
0.018692842 0.035735853 0.11438315
0.019335479 0.035733737 0.11438204
0.019671738 0.035741776 0.11438149
0.02031959 0.035828784 0.1143808
0.020657124 0.035990436 0.11438099
0.021291573 0.035837475 0.11437917
0.021639364 0.035669543 0.11437777
0.023594471 0.035734221 0.11437473
0.024567472 0.035750799 0.11437314
0.025209446 0.035842545 0.11437248
0.025549071 0.035814844 0.11437175
0.026196511 0.035750236 0.11437034
0.027159085 0.035615958 0.11436804
0.028139291 0.035887294 0.11436766
0.029451417 0.035753287 0.11436477
0.030455329 0.03574995 0.11436302
0.033035699 0.035742149 0.11435856
0.034278668 0.035612859 0.11435581
0.034985486 0.035746899 0.11435523
0.035962131 0.035737917 0.11435352
0.037903994 0.035764828 0.11435031
0.041835882 0.035886649 0.11434414
0.043792889 0.035734255 0.11434007
0.045736711 0.035608213 0.11433613
0.048102196 0.03572458 0.11433262
0.048672728 0.035605259 0.11433107
0.049077023 0.035705544 0.11433085
0.049649026 0.035575572 0.11432926
0.050050788 0.035730291 0.1143293
0.078008227 0.0356845 0.1142811
0.078978784 0.035692032 0.11427946
0.079449899 0.03576538 0.114279
0.079952359 0.035742778 0.11427804
0.080432773 0.035935704 0.11427813
0.080929264 0.035641659 0.11427588
0.08142481 0.035720408 0.1142754
0.08190541 0.035782412 0.11427487
0.082402915 0.035720944 0.11427373
0.083379894 0.035735946 0.11427212
0.084357418 0.035731047 0.11427043
0.08484529 0.035758324 0.1142697
0.085332312 0.035746172 0.11426882
0.08630871 0.035722475 0.11426703
0.087292068 0.035727385 0.11426536
0.08827801 0.03568292 0.11426346
0.08925543 0.035758913 0.11426214
0.090238564 0.035728984 0.11426032
0.091216326 0.035763718 0.1142588
0.092197113 0.035728581 0.11425696
0.093176872 0.035848755 0.11425584
0.094157502 0.035797257 0.11425391
0.094605893 0.035925884 0.11425376
0.096109629 0.035750698 0.11425034
0.09987016 0.035753824 0.1142439
-0.10014181 0.036225703 0.11458945
-0.099882223 0.036259867 0.11458917
-0.099222049 0.036256563 0.11458802
-0.09825024 0.036256284 0.11458635
-0.097273298 0.036257926 0.11458468
-0.096284673 0.036228377 0.11458284
-0.095299855 0.036188737 0.11458096
-0.094313316 0.03619422 0.1145793
-0.093346052 0.036182981 0.11457758
-0.078488082 0.036465447 0.11455343
-0.048074231 0.036192447 0.11449993
-0.047085285 0.036252335 0.11449852
-0.046065275 0.036254369 0.11449677
-0.04507757 0.036206186 0.11449485
-0.044147965 0.036274299 0.11449357
-0.043151002 0.036249399 0.11449175
-0.042258702 0.036323491 0.11449057
-0.041161876 0.036230683 0.11448824
-0.040179659 0.036337387 0.11448707
-0.039195854 0.036179945 0.11448462
-0.038263783 0.036194168 0.1144831
-0.037268907 0.036265843 0.11448173
-0.036507659 0.036101189 0.11447963
-0.036236517 0.03622425 0.11447977
-0.035527028 0.036144119 0.11447816
-0.034277815 0.036270995 0.11447662
-0.033563275 0.036236856 0.11447523
-0.033297457 0.03611733 0.11447421
-0.032576147 0.036282957 0.11447375
-0.031595364 0.036189266 0.11447163
-0.03133535 0.036262274 0.11447153
-0.030621748 0.036098409 0.11446952
-0.030347325 0.036422707 0.11447059
-0.029364968 0.036253434 0.11446811
-0.02866704 0.036231693 0.1144668
-0.02837839 0.03626227 0.11446646
-0.02768058 0.036248647 0.11446519
-0.026418919 0.036263518 0.11446309
-0.025440084 0.036257707 0.11446139
-0.024457445 0.03634043 0.11446009
-0.023758821 0.036219608 0.11445832
-0.023477683 0.036204666 0.11445776
-0.022494152 0.036439396 0.1144572
-0.021509986 0.036307242 0.11445487
-0.020521911 0.036209546 0.11445272
-0.019538527 0.036229227 0.11445113
-0.017579174 0.03626636 0.11444794
-0.015626697 0.036258809 0.11444455
-0.014637026 0.036266014 0.11444288
-0.013662952 0.036388487 0.11444179
-0.012670962 0.036263667 0.1144395
-0.01168952 0.036262836 0.11443781
-0.010715041 0.036253843 0.11443609
-0.01004312 0.036477663 0.11443601
-0.009729065 0.036228821 0.11443428
-0.0087556308 0.036271561 0.11443282
-0.0077806097 0.036210433 0.11443084
-0.0071037263 0.036237705 0.11442982
-0.0067933481 0.03623239 0.11442926
-0.006125283 0.036240119 0.11442815
-0.0058098859 0.036229193 0.11442756
-0.005145432 0.03623946 0.11442646
-0.0048230886 0.036168747 0.11442557
-0.0041709864 0.036336411 0.11442526
-0.0038441543 0.036485013 0.11442541
-0.0031882199 0.03628809 0.11442333
-0.0028660661 0.036242865 0.11442257
-0.0022103088 0.036199026 0.11442123
-0.0018826387 0.03621985 0.11442077
-0.0012242617 0.036233414 0.11441971
-0.00091348833 0.036272984 0.11441937
6.1724197e-05 0.036254454 0.1144176
0.0007383207 0.036052849 0.11441547
0.0010543081 0.036258992 0.11441591
0.0017175105 0.036369186 0.1144153
0.0020237844 0.036241986 0.11441416
0.0026994969 0.036379509 0.11441366
0.0030169461 0.036236465 0.11441244
0.0039983406 0.036231861 0.11441074
0.0048944708 0.036162801 0.11440887
0.0059073479 0.036215227 0.11440738
0.0068843733 0.036271252 0.11440597
0.0078582289 0.036299754 0.11440443
0.0088366708 0.036248442 0.1144025
0.009761042 0.036158517 0.11440049
0.010803719 0.036260705 0.11439919
0.011751864 0.036321051 0.11439785
0.012486241 0.036187951 0.11439596
0.012816646 0.036248039 0.11439567
0.013460531 0.036098454 0.11439385
0.013803469 0.036112793 0.11439333
0.014775972 0.036262035 0.11439238
0.015430226 0.036050167 0.11439025
0.015751841 0.036276802 0.11439077
0.016404679 0.036313046 0.11438983
0.016730772 0.036250994 0.11438897
0.017386463 0.036220569 0.11438771
0.01770529 0.036169495 0.11438691
0.018366052 0.036304019 0.11438642
0.018692808 0.036278296 0.11438573
0.01933549 0.036414638 0.11438528
0.019671494 0.036274761 0.11438404
0.020319456 0.036427427 0.11438365
0.02065701 0.036255665 0.11438224
0.021291533 0.036247533 0.11438113
0.02261954 0.036347315 0.11437932
0.023255149 0.036434028 0.11437865
0.023594584 0.036240634 0.11437714
0.02422874 0.036163881 0.11437568
0.024567291 0.0362393 0.11437546
0.025209831 0.036223028 0.11437429
0.025549229 0.036233556 0.11437375
0.02619639 0.036479399 0.11437381
0.029459493 0.036345098 0.11436757
0.030423893 0.036066256 0.11436459
0.031071 0.036430568 0.11436521
0.032049298 0.036292803 0.11436287
0.033035688 0.036059532 0.11436007
0.034015853 0.036195345 0.11435904
0.034985449 0.036289465 0.11435781
0.03596203 0.036102325 0.11435526
0.037314124 0.036293324 0.11435384
0.037903864 0.036484737 0.11435374
0.041835744 0.036164317 0.11434546
0.043792728 0.036234941 0.11434245
0.044759374 0.036431544 0.11434172
0.045736447 0.036382388 0.11433981
0.04671248 0.036384728 0.11433814
0.047691241 0.036237203 0.11433576
0.048102003 0.036259945 0.11433517
0.049076986 0.036323819 0.11433379
0.050050717 0.036146056 0.11433128
0.079449862 0.036261883 0.11428137
0.079952084 0.036237869 0.1142804
0.080432698 0.036249161 0.11427962
0.081424728 0.036270026 0.11427802
0.081905179 0.036144804 0.1142766
0.082402773 0.036211066 0.11427606
0.08337982 0.036231186 0.11427448
0.084357299 0.036266252 0.11427297
0.08533226 0.036216181 0.11427106
0.086309135 0.036339562 0.11426997
0.08729171 0.036251545 0.11426786
0.088277541 0.036335673 0.11426657
0.089255236 0.03615484 0.11426403
0.090238973 0.03623106 0.11426271
0.091216326 0.036172148 0.11426075
0.092197031 0.036267038 0.11425952
0.093176715 0.036219772 0.1142576
0.093634561 0.036204822 0.11425675
0.094157584 0.03625324 0.11425608
0.094605491 0.03638107 0.11425593
0.095578834 0.036226336 0.11425352
0.099870317 0.03623867 0.1142462
-0.10014416 0.036765665 0.11459203
-0.099901967 0.036758061 0.11459158
-0.099126734 0.036882471 0.11459084
-0.098250404 0.036772564 0.11458881
-0.097273178 0.036752697 0.11458703
-0.09628436 0.036764473 0.11458539
-0.095299833 0.036691744 0.11458335
-0.094312981 0.036812421 0.11458225
-0.093209632 0.036681309 0.11457972
-0.092217468 0.036795732 0.11457857
-0.048148625 0.036760449 0.11450276
-0.04709081 0.036737449 0.11450084
-0.046106115 0.03675181 0.11449921
-0.0450776 0.036739696 0.11449739
-0.04413975 0.036749672 0.11449582
-0.043157473 0.036731079 0.11449405
-0.04217574 0.036754958 0.11449248
-0.041201849 0.036771547 0.11449089
-0.040218752 0.036753442 0.11448912
-0.039196294 0.036797989 0.11448757
-0.038264036 0.036649998 0.11448527
-0.037268821 0.036693353 0.11448376
-0.035256486 0.036880363 0.1144812
-0.034278288 0.036655232 0.11447845
-0.033563256 0.036830671 0.11447806
-0.033297863 0.03691775 0.11447801
-0.032576092 0.036598839 0.11447526
-0.032320607 0.036832672 0.11447594
-0.031595241 0.036821693 0.11447464
-0.031335741 0.036741406 0.11447381
-0.030621693 0.036870044 0.11447319
-0.030347342 0.036742028 0.11447211
-0.02964473 0.036607295 0.11447027
-0.029364994 0.036755316 0.1144705
-0.028666986 0.036729623 0.11446917
-0.028378647 0.036750261 0.11446878
-0.02768054 0.036928661 0.11446843
-0.027394002 0.036795266 0.1144673
-0.026419044 0.03675786 0.11446545
-0.025439927 0.036767829 0.11446382
-0.024742998 0.036867443 0.1144631
-0.024457425 0.036750384 0.11446205
-0.023758864 0.036679413 0.11446051
-0.02249404 0.036762942 0.11445874
-0.021510199 0.03656666 0.11445611
-0.020521959 0.036572829 0.11445445
-0.019538308 0.036743779 0.11445356
-0.018558547 0.036853362 0.11445241
-0.01757936 0.036664166 0.11444983
-0.016606361 0.036805194 0.11444884
-0.015626829 0.036749102 0.11444689
-0.014637186 0.03661878 0.11444456
-0.013662873 0.036754128 0.11444353
-0.012671215 0.036656667 0.11444137
-0.011689625 0.036756106 0.11444016
-0.010042923 0.036738139 0.11443725
-0.0097292718 0.036715686 0.1144366
-0.0090615442 0.036880542 0.11443624
-0.0087559568 0.036749419 0.11443509
-0.0077806474 0.036706634 0.11443321
-0.0071037849 0.036608785 0.11443158
-0.0067933686 0.036888503 0.11443239
-0.0061249724 0.036765147 0.11443065
-0.0058100456 0.036719125 0.11442989
-0.005145431 0.036742877 0.11442886
-0.0048231408 0.036752969 0.11442836
-0.0038437608 0.036780927 0.11442681
-0.0031882254 0.036926541 0.11442637
-0.0028660093 0.036744252 0.11442494
-0.0018825106 0.03672456 0.11442318
-0.00091357442 0.036765397 0.11442171
-0.00024129885 0.036831923 0.11442087
6.1702929e-05 0.036752112 0.11441997
0.001054186 0.036750507 0.11441826
0.0017174784 0.036554307 0.11441618
0.0020236901 0.03673394 0.11441651
0.0026995635 0.036786873 0.11441561
0.003016995 0.036737707 0.11441482
0.0039513013 0.036716051 0.11441312
0.0049104667 0.036832292 0.11441202
0.0059635709 0.036730178 0.11440973
0.0068767508 0.036765832 0.11440834
0.0078318911 0.036691323 0.11440635
0.008843814 0.036703419 0.11440466
0.0098129669 0.036762558 0.11440329
0.010796164 0.036767766 0.11440162
0.011787297 0.036738545 0.11439978
0.012486246 0.036779221 0.11439878
0.012816752 0.036528695 0.11439701
0.013460654 0.03695396 0.11439794
0.013803455 0.036656443 0.11439592
0.01444295 0.036821779 0.11439562
0.01477643 0.036695752 0.11439443
0.015751405 0.036748454 0.11439302
0.0164048 0.03654436 0.11439093
0.01673062 0.036740247 0.1143913
0.017386377 0.036712468 0.11439005
0.017705128 0.036748748 0.11438967
0.018366011 0.036739103 0.11438849
0.018692505 0.036759779 0.11438803
0.019335503 0.036777064 0.11438701
0.019671336 0.036761384 0.11438636
0.020656852 0.036742609 0.11438457
0.021291696 0.036870316 0.11438409
0.021639191 0.036839705 0.11438334
0.022262705 0.036888756 0.11438251
0.022619311 0.036877781 0.11438185
0.023255197 0.036715519 0.11437999
0.023594661 0.036744297 0.11437954
0.024228742 0.036798764 0.11437871
0.024567032 0.036722511 0.11437777
0.025209643 0.03678095 0.11437695
0.025549231 0.036687441 0.11437592
0.026196497 0.036745034 0.11437508
0.02715938 0.036814261 0.11437375
0.027510567 0.036701847 0.11437261
0.028139386 0.036695499 0.11437151
0.029434195 0.036638126 0.11436901
0.030423867 0.036857244 0.11436836
0.03240015 0.036795314 0.11436467
0.033391111 0.036793552 0.11436296
0.034985349 0.036565859 0.11435913
0.036933918 0.03657363 0.11435583
0.03790389 0.036752462 0.11435502
0.038890462 0.036891136 0.11435398
0.041835655 0.03679534 0.11434847
0.042211112 0.036647003 0.11434712
0.042817753 0.036935411 0.11434745
0.04379246 0.036742587 0.11434487
0.044759274 0.036796495 0.11434346
0.045736361 0.036610734 0.1143409
0.046712339 0.036749773 0.11433989
0.047126647 0.036747146 0.11433917
0.047691263 0.036723606 0.11433809
0.048101891 0.036748461 0.1143375
0.048672378 0.036824942 0.11433688
0.049077522 0.036777992 0.11433596
0.078470878 0.036756702 0.11428541
0.078978024 0.036824595 0.11428487
0.079449773 0.03673324 0.11428361
0.079951741 0.036780242 0.11428298
0.080432981 0.036808725 0.1142823
0.08142487 0.036766551 0.11428039
0.082403064 0.036718227 0.11427847
0.083379813 0.036863428 0.11427749
0.084357359 0.036767013 0.11427536
0.085332707 0.036695439 0.11427334
0.086308561 0.036574356 0.11427109
0.087291732 0.036749355 0.11427023
0.088277541 0.036698088 0.1142683
0.089255221 0.036741227 0.11426682
0.090239033 0.036731314 0.11426509
0.092196688 0.036776163 0.11426194
0.093176737 0.036746655 0.11426011
0.093634225 0.036571674 0.1142585
0.094157554 0.036749221 0.11425845
0.094605163 0.036836084 0.11425809
0.095128126 0.036744781 0.11425676
0.099872991 0.036760807 0.1142487
-0.10014099 0.037269961 0.11459442
-0.099911883 0.037280113 0.11459408
-0.099150553 0.037164126 0.11459222
-0.098250084 0.037115052 0.11459044
-0.097132914 0.037235864 0.1145891
-0.096165642 0.037239 0.11458746
-0.095299758 0.03727999 0.11458616
-0.094312817 0.037258025 0.11458436
-0.091240682 0.037462652 0.11458007
-0.047090776 0.03721137 0.11450309
-0.046100251 0.037272327 0.11450167
-0.045113798 0.03725395 0.1144999
-0.044133708 0.037234839 0.11449813
-0.042170137 0.037239585 0.11449479
-0.041201964 0.03720849 0.11449298
-0.040213361 0.037241675 0.11449143
-0.039244331 0.037340913 0.11449023
-0.038264118 0.037307527 0.11448839
-0.037355617 0.037274051 0.11448669
-0.036237102 0.037288841 0.11448483
-0.035256408 0.037249878 0.11448296
-0.033297636 0.037250262 0.11447961
-0.032320518 0.03724796 0.11447792
-0.03159523 0.037095718 0.11447594
-0.031335909 0.037143048 0.11447573
-0.030621679 0.037235893 0.11447494
-0.030347282 0.037247028 0.11447452
-0.029365378 0.037008118 0.1144717
-0.028378872 0.037237849 0.1144711
-0.027680434 0.037232403 0.11446988
-0.027393961 0.037251972 0.11446948
-0.026708672 0.037384447 0.11446893
-0.026419336 0.037240651 0.11446775
-0.025729354 0.037261862 0.11446666
-0.025440153 0.037256457 0.11446615
-0.024742816 0.037266254 0.114465
-0.024457613 0.037195355 0.11446416
-0.023758661 0.037213519 0.11446305
-0.023477906 0.037420802 0.11446356
-0.022494391 0.037240837 0.11446101
-0.02151031 0.037214614 0.11445919
-0.020521972 0.03725088 0.11445768
-0.019538799 0.037258122 0.11445602
-0.018558562 0.037259061 0.11445434
-0.017579293 0.03734912 0.1144531
-0.016606098 0.037274316 0.11445107
-0.015626736 0.037254319 0.11444929
-0.013662886 0.037252959 0.11444592
-0.012671285 0.037286613 0.11444437
-0.011689768 0.037244797 0.11444249
-0.010715093 0.037246987 0.11444082
-0.010043023 0.037157521 0.11443925
-0.0097295083 0.037108671 0.11443847
-0.0090615507 0.037238631 0.11443795
-0.0080809798 0.037426218 0.11443716
-0.0077807023 0.037335332 0.1144362
-0.0067933779 0.037113462 0.11443346
-0.006125079 0.037277225 0.11443309
-0.0058102994 0.037199639 0.11443218
-0.0051455032 0.037018139 0.11443017
-0.0048230137 0.037258666 0.11443077
-0.0041709132 0.037152585 0.11442914
-0.003843996 0.037264396 0.11442912
-0.0031881311 0.03710296 0.11442722
-0.002866169 0.037277013 0.11442749
-0.001882583 0.037262935 0.11442575
-0.0012242204 0.037099283 0.11442383
-0.00091346895 0.037224993 0.1144239
-0.00024132176 0.037017029 0.11442176
6.2001476e-05 0.037267189 0.11442243
0.0010541376 0.037333723 0.11442104
0.0017175605 0.037187517 0.1144192
0.0020232745 0.037250713 0.11441898
0.0026995679 0.03733445 0.11441822
0.0030168181 0.037268847 0.11441736
0.003998341 0.037271429 0.11441568
0.0049289921 0.037263237 0.11441405
0.0059074247 0.037233654 0.11441223
0.0068843495 0.037229452 0.11441053
0.0078475326 0.037321113 0.11440931
0.0088436184 0.037245706 0.11440725
0.009820044 0.037239842 0.11440554
0.01079638 0.037249457 0.11440391
0.011779195 0.037224196 0.11440212
0.012486106 0.037108399 0.11440034
0.013460746 0.037176192 0.11439899
0.013803449 0.037422515 0.11439957
0.014442815 0.037239674 0.11439761
0.015751636 0.037262041 0.11439546
0.016404789 0.037454393 0.11439527
0.016730631 0.037238583 0.11439368
0.017386504 0.037233751 0.11439253
0.017705021 0.037237387 0.114392
0.018366059 0.037262943 0.11439098
0.018692508 0.037256308 0.1143904
0.019335561 0.037272345 0.11438937
0.019671088 0.037243068 0.11438864
0.020319615 0.037232708 0.11438749
0.020656982 0.037157178 0.11438654
0.02129161 0.037239678 0.11438585
0.021638794 0.037266854 0.11438539
0.022262732 0.037203629 0.11438401
0.02261929 0.037236739 0.11438356
0.023255056 0.037479129 0.11438362
0.023594167 0.037255436 0.11438198
0.02422869 0.037210092 0.11438067
0.024567001 0.037172057 0.11437991
0.025209654 0.037186671 0.11437888
0.025548894 0.037253655 0.11437861
0.0261967 0.037229188 0.11437739
0.027159171 0.037282724 0.11437599
0.028139338 0.03723922 0.1143741
0.029117566 0.037160926 0.11437204
0.030455166 0.03726726 0.11437026
0.03107097 0.037241973 0.11436908
0.032407377 0.037254393 0.11436684
0.033391096 0.037243471 0.11436511
0.034985337 0.037196551 0.11436215
0.037903883 0.037245847 0.11435737
0.038890645 0.037234534 0.11435562
0.040856071 0.037250225 0.11435232
0.041835796 0.03723336 0.11435056
0.042211045 0.037366994 0.11435055
0.042818036 0.037227727 0.11434885
0.043792237 0.037248787 0.11434728
0.044759456 0.037228063 0.11434552
0.046712257 0.0372888 0.11434245
0.04712664 0.03733328 0.11434196
0.047690786 0.037022673 0.11433951
0.048102092 0.037257824 0.11433993
0.048672639 0.037252739 0.11433892
0.049077462 0.037181541 0.11433788
0.078977823 0.037272252 0.114287
0.07944987 0.037257455 0.11428612
0.079951338 0.037282467 0.11428537
0.080433063 0.037264656 0.11428446
0.081424892 0.037263226 0.11428274
0.082403123 0.037226968 0.1142809
0.083379693 0.037245337 0.11427931
0.084357515 0.037227508 0.11427755
0.085332438 0.037266817 0.11427606
0.08630836 0.037239719 0.11427426
0.087291628 0.037171543 0.11427224
0.088277549 0.037238773 0.11427087
0.088765532 0.037473574 0.11427115
0.089255169 0.037325982 0.11426961
0.089722522 0.037343327 0.11426889
0.090238586 0.037245706 0.11426754
0.091216005 0.037371915 0.11426646
0.092196718 0.037241023 0.11426416
0.093176797 0.037244573 0.11426249
0.093633957 0.037066363 0.11426086
0.094157524 0.037198212 0.11426058
0.094604984 0.037368812 0.11426063
0.099872001 0.037270032 0.11425112
-0.10012437 0.037760884 0.11459673
-0.099915624 0.037714142 0.11459615
-0.099150963 0.037821453 0.11459535
-0.098249927 0.037837267 0.11459388
-0.097105242 0.03779899 0.11459173
-0.096195363 0.037709281 0.11458974
-0.095186435 0.037813518 0.11458851
-0.094312653 0.037749339 0.1145867
-0.093210615 0.037941135 0.11458573
-0.092218108 0.037809391 0.1145834
-0.091240726 0.037600007 0.11458072
-0.077665687 0.037722681 0.11455801
-0.047098156 0.037802849 0.11450591
-0.046106312 0.037748247 0.11450395
-0.045119911 0.037745666 0.11450224
-0.042176101 0.037740264 0.11449718
-0.041202195 0.037704986 0.11449534
-0.040218752 0.03777073 0.11449395
-0.039236393 0.037757285 0.1144922
-0.038255706 0.037762288 0.11449054
-0.037278004 0.037775155 0.11448894
-0.036507219 0.037853975 0.11448799
-0.036236722 0.037769508 0.11448711
-0.035256617 0.037758492 0.11448538
-0.034544528 0.037646897 0.11448363
-0.033297472 0.03776313 0.11448204
-0.032320671 0.037741147 0.11448026
-0.031336106 0.037693974 0.11447835
-0.030621663 0.037602574 0.11447669
-0.030347008 0.037766475 0.11447699
-0.028667087 0.037833784 0.11447443
-0.028378913 0.037690572 0.11447326
-0.027680272 0.037734009 0.11447227
-0.027394116 0.037788682 0.11447204
-0.026708415 0.037732776 0.11447059
-0.026419405 0.037737194 0.11447012
-0.025729274 0.03771472 0.11446882
-0.025440101 0.037759703 0.11446854
-0.024742637 0.037757006 0.11446732
-0.024457492 0.037748974 0.1144668
-0.023758635 0.03776357 0.11446567
-0.023477981 0.037764963 0.1144652
-0.022783907 0.03780444 0.11446419
-0.022494506 0.03773462 0.11446337
-0.021518491 0.037753653 0.11446178
-0.020534096 0.037696425 0.11445981
-0.019538896 0.037750486 0.11445837
-0.018558495 0.037764501 0.11445675
-0.017578969 0.037777364 0.11445513
-0.016618202 0.037743304 0.11445332
-0.01562639 0.037774537 0.11445176
-0.014637465 0.03764407 0.11444945
-0.01370587 0.037793741 0.11444856
-0.01267114 0.037748065 0.11444657
-0.011689902 0.037734468 0.11444482
-0.010715154 0.03773981 0.11444317
-0.0090614231 0.037741363 0.11444034
-0.0080808811 0.037692238 0.11443843
-0.0077807293 0.037787765 0.11443836
-0.0071037142 0.037745811 0.114437
-0.0067935432 0.037733708 0.11443641
-0.0061251372 0.037737478 0.11443529
-0.0058101611 0.037751455 0.11443482
-0.0048229937 0.037757311 0.11443315
-0.0038439175 0.03776706 0.11443152
-0.0031880769 0.037876267 0.1144309
-0.0028663736 0.037761241 0.1144298
-0.0018823794 0.037771784 0.11442816
-0.00091330707 0.037732102 0.11442631
-0.00024119839 0.037831824 0.11442564
6.1975021e-05 0.037764113 0.11442479
0.001054501 0.03776342 0.11442308
0.0020231241 0.037738301 0.1144213
0.0026998357 0.037862502 0.11442073
0.0030167422 0.037761573 0.11441971
0.0039161672 0.037787009 0.11441828
0.0049105519 0.037731003 0.11441631
0.0058511137 0.037863057 0.11441533
0.0069307378 0.037756119 0.11441296
0.007858023 0.037711352 0.11441116
0.0087843072 0.037733924 0.11440967
0.0098125879 0.037735 0.11440791
0.010804077 0.03774263 0.11440624
0.011787131 0.037697628 0.11440435
0.012816501 0.037865676 0.11440337
0.013460626 0.037869066 0.11440229
0.013803343 0.037734374 0.11440106
0.014443002 0.037638307 0.11439951
0.015751623 0.037758596 0.11439783
0.016404722 0.037644591 0.11439617
0.016730767 0.037743576 0.11439609
0.017386373 0.03771244 0.11439481
0.017705156 0.037789393 0.11439463
0.0183663 0.037764046 0.11439338
0.018692462 0.03775062 0.11439275
0.019335277 0.037565142 0.11439076
0.019671405 0.037758954 0.1143911
0.020656781 0.037777875 0.1143895
0.021291737 0.037730079 0.11438819
0.021639101 0.037648492 0.1143872
0.022262745 0.037746511 0.1143866
0.022619219 0.037729464 0.1143859
0.023255188 0.037743706 0.11438488
0.023594266 0.037757058 0.11438437
0.024228994 0.037777878 0.11438338
0.025209259 0.037940975 0.11438247
0.025549164 0.037587039 0.1143802
0.026196584 0.037734557 0.11437979
0.026527118 0.037843198 0.11437974
0.027158964 0.037716523 0.11437805
0.027510602 0.037833136 0.11437801
0.028139325 0.037738588 0.11437648
0.030371312 0.037700128 0.11437245
0.03107086 0.037610468 0.11437083
0.032404639 0.037742894 0.11436918
0.033391152 0.03774469 0.11436749
0.034985092 0.037930872 0.11436564
0.038890421 0.037742652 0.11435805
0.040257305 0.0376423 0.11435521
0.040856078 0.037787315 0.11435489
0.041234482 0.03790421 0.11435479
0.041835908 0.037735656 0.11435295
0.042817764 0.037736733 0.11435127
0.043184381 0.037950028 0.11435166
0.043792035 0.037722278 0.11434953
0.044173881 0.03772369 0.11434888
0.044759128 0.037740026 0.11434796
0.04515212 0.037908003 0.11434808
0.045736033 0.037877969 0.11434694
0.046141397 0.037728008 0.11434553
0.046712235 0.037644163 0.11434415
0.047126707 0.037741777 0.1143439
0.047690619 0.037877243 0.11434358
0.04867208 0.037734807 0.11434122
0.078471102 0.037945833 0.11429107
0.078977704 0.03776456 0.11428934
0.079450175 0.03771488 0.11428829
0.079951182 0.037725989 0.11428749
0.080433212 0.037800811 0.11428702
0.081424981 0.037765078 0.11428514
0.082403347 0.037510347 0.11428225
0.082888298 0.037790168 0.11428275
0.083379731 0.037717655 0.11428156
0.084357537 0.037635367 0.11427949
0.084843896 0.037705492 0.11427899
0.08533255 0.037770089 0.11427846
0.086308338 0.037734214 0.11427661
0.087291747 0.037834372 0.1142754
0.088277392 0.037950665 0.11427426
0.088765517 0.037736058 0.11427241
0.089255206 0.037733074 0.11427154
0.090238713 0.037750427 0.11426995
0.09121605 0.037734073 0.11426819
0.09168198 0.037755907 0.11426749
0.092196837 0.037743609 0.11426655
0.093176611 0.037545856 0.11426392
0.094157442 0.037735313 0.11426315
0.094604798 0.037642114 0.11426193
0.095577911 0.037762076 0.11426084
0.09987089 0.037748359 0.1142534
-0.10012625 0.038258247 0.11459911
-0.099877752 0.038188659 0.11459836
-0.098139875 0.038209345 0.11459547
-0.097273067 0.038166061 0.11459377
-0.096142523 0.038217656 0.11459208
-0.095148973 0.038242079 0.11459049
-0.094200566 0.038228009 0.1145888
-0.093255781 0.038145401 0.11458678
-0.092221119 0.038267665 0.11458558
-0.091241091 0.038334388 0.11458422
-0.090250157 0.038294993 0.11458233
-0.07864207 0.038063236 0.1145613
-0.07766597 0.038288634 0.1145607
-0.04727437 0.038153578 0.11450789
-0.046106473 0.038241103 0.1145063
-0.045114122 0.038239345 0.11450459
-0.044134129 0.038222674 0.11450283
-0.043157712 0.038267933 0.11450137
-0.042170294 0.038238436 0.11449954
-0.041202169 0.03822916 0.11449784
-0.040296976 0.038373221 0.11449695
-0.03923659 0.038212061 0.11449437
-0.038297966 0.03812525 0.11449236
-0.037290748 0.038215827 0.11449105
-0.036507312 0.038271565 0.11448997
-0.036236815 0.038240351 0.11448935
-0.035526901 0.038419142 0.114489
-0.035256837 0.038274653 0.11448784
-0.033563059 0.038370412 0.11448539
-0.033298008 0.038189139 0.11448408
-0.032576036 0.038469061 0.11448416
-0.032320697 0.03824183 0.11448266
-0.031595241 0.038420986 0.11448226
-0.031336159 0.038222883 0.11448087
-0.030621696 0.038215268 0.1144796
-0.030347448 0.038195286 0.11447904
-0.029365668 0.038220517 0.11447747
-0.0286671 0.038154699 0.11447596
-0.02837895 0.038280047 0.11447607
-0.027680414 0.038219515 0.11447458
-0.027394475 0.038131885 0.11447367
-0.02670829 0.038226832 0.11447295
-0.026419258 0.038246509 0.11447255
-0.025729436 0.03822979 0.11447128
-0.025440559 0.038231932 0.11447079
-0.02474257 0.038256753 0.11446971
-0.024457818 0.038229849 0.1144691
-0.023758713 0.038272567 0.1144681
-0.023478119 0.038405795 0.11446825
-0.022783639 0.038241748 0.11446627
-0.022494497 0.038326789 0.11446619
-0.021518515 0.038201645 0.11446392
-0.020540716 0.038369782 0.11446304
-0.019545304 0.038239703 0.11446071
-0.018558668 0.038251393 0.11445908
-0.017579215 0.038260616 0.11445744
-0.016612591 0.038235448 0.11445566
-0.015626496 0.038266595 0.11445411
-0.014637433 0.03828273 0.11445249
-0.013713111 0.038252074 0.11445076
-0.012671086 0.038249914 0.11444896
-0.01168976 0.038241934 0.11444724
-0.010714944 0.038251285 0.11444561
-0.0097296061 0.038276549 0.11444403
-0.0090613961 0.03815037 0.11444229
-0.0087561505 0.038202472 0.11444201
-0.0080809547 0.038428847 0.11444194
-0.0077805622 0.038249277 0.11444056
-0.0071035279 0.038235035 0.11443933
-0.0067934636 0.038325828 0.11443923
-0.0061252029 0.038065232 0.11443684
-0.0058101634 0.038247313 0.11443718
-0.0051454175 0.038478155 0.11443713
-0.0048230919 0.038248591 0.11443549
-0.0041707936 0.038104478 0.11443368
-0.0038439725 0.03825907 0.11443386
-0.0031880797 0.038252339 0.11443269
-0.0028665839 0.038245309 0.11443211
-0.0018825768 0.038212176 0.11443026
-0.00091347902 0.038263228 0.11442884
-0.00024107841 0.038234886 0.11442756
6.2012194e-05 0.038264371 0.11442716
0.00073846633 0.03823445 0.11442587
0.0010544393 0.038256444 0.11442543
0.002023191 0.038239833 0.11442369
0.0026997356 0.038099084 0.11442186
0.0030167294 0.038122181 0.11442142
0.0039435094 0.038276531 0.11442057
0.0048942911 0.038294993 0.11441903
0.005794859 0.038327526 0.11441763
0.0068842694 0.038246799 0.11441538
0.0079106009 0.03823835 0.11441358
0.0088437488 0.038212877 0.11441186
0.0098201744 0.03825203 0.11441037
0.01080365 0.038254529 0.11440869
0.011779231 0.038254336 0.11440702
0.012486205 0.038256515 0.11440581
0.012816504 0.03818392 0.11440489
0.013460718 0.038227145 0.114404
0.013803049 0.03825916 0.11440356
0.014442983 0.038321704 0.11440276
0.014776289 0.038497306 0.11440302
0.015430367 0.038228121 0.11440062
0.01575144 0.038243104 0.11440014
0.016405227 0.038245134 0.11439903
0.0167308 0.038243681 0.11439847
0.017386407 0.038194824 0.11439711
0.017705048 0.038414501 0.11439761
0.018366072 0.038232591 0.1143956
0.018692577 0.038255021 0.11439515
0.019335298 0.038200017 0.11439379
0.01967142 0.038256954 0.11439347
0.02031938 0.038294934 0.11439255
0.020656632 0.038265307 0.11439183
0.021291688 0.038233489 0.11439059
0.021638956 0.038405344 0.11439081
0.022262847 0.038238138 0.11438894
0.022618882 0.038251869 0.1143884
0.023255169 0.038245346 0.11438727
0.023594024 0.038229562 0.11438662
0.02422894 0.038234208 0.11438555
0.025209513 0.038194187 0.11438368
0.026196484 0.038239561 0.1143822
0.026527107 0.03824896 0.11438168
0.027159061 0.0382386 0.11438054
0.027510468 0.038049258 0.11437903
0.028139202 0.038332995 0.11437931
0.029117526 0.038246065 0.11437722
0.030088384 0.038333137 0.11437596
0.031397361 0.038083822 0.11437253
0.032404501 0.03820575 0.11437138
0.033391021 0.038142171 0.11436938
0.034015469 0.038244195 0.1143688
0.03498508 0.038246993 0.11436715
0.035961624 0.038240582 0.11436544
0.036933511 0.038398683 0.11436453
0.037903622 0.038251769 0.11436216
0.038299307 0.038318705 0.1143618
0.038890209 0.038250081 0.11436046
0.039871488 0.038296647 0.114359
0.040257387 0.03836859 0.11435868
0.040856134 0.038274456 0.1143572
0.041234534 0.038357303 0.11435695
0.041835379 0.038288713 0.11435559
0.042817906 0.038218945 0.11435357
0.04318434 0.038085099 0.1143523
0.043791827 0.038433935 0.11435293
0.044173822 0.038215384 0.11435123
0.04475889 0.038111366 0.11434972
0.045152117 0.038267586 0.11434979
0.045736097 0.038229953 0.11434862
0.046141643 0.038239919 0.11434797
0.046711866 0.038379475 0.11434765
0.047126792 0.038243107 0.1143463
0.047690526 0.038237952 0.1143453
0.048671901 0.038057469 0.11434276
0.078006044 0.038430098 0.11429418
0.07897754 0.038159229 0.11429122
0.079449929 0.038433678 0.11429171
0.08043316 0.038265858 0.11428923
0.081425041 0.038265154 0.11428752
0.081903487 0.038374037 0.11428722
0.082402848 0.038238503 0.11428572
0.082888268 0.038225994 0.11428483
0.083380021 0.038274314 0.11428422
0.083862498 0.038479984 0.11428437
0.084357485 0.038262889 0.11428248
0.085332379 0.038255125 0.11428077
0.086308375 0.038279753 0.11427921
0.087291725 0.038239356 0.11427733
0.087786227 0.038337294 0.11427695
0.088277601 0.03828007 0.11427584
0.088765197 0.038232826 0.11427477
0.089255385 0.038240649 0.11427397
0.089721762 0.038255941 0.11427324
0.090238594 0.038237981 0.11427227
0.090704933 0.038391422 0.1142722
0.091216438 0.038254797 0.11427067
0.091681607 0.038298748 0.11427008
0.092196763 0.038234912 0.11426889
0.093176641 0.038362291 0.11426782
0.093632899 0.038433962 0.11426737
0.094157435 0.038050804 0.11426464
0.095128097 0.038364571 0.11426448
0.095577613 0.03825739 0.1142632
0.09610945 0.038403999 0.11426298
0.099874236 0.038250126 0.11425578
-0.10012219 0.038721517 0.11460131
-0.09997604 0.038592368 0.11460044
-0.098250031 0.038716335 0.11459807
-0.097272784 0.038693678 0.11459628
-0.096283734 0.038877372 0.11459546
-0.094312288 0.038501803 0.11459029
-0.093278334 0.038707003 0.11458949
-0.092222601 0.038757738 0.11458791
-0.091241434 0.038643759 0.1145857
-0.090250589 0.038790032 0.11458469
-0.089267865 0.0388817 0.11458344
-0.086344965 0.038844071 0.11457825
-0.047274526 0.03875915 0.11451077
-0.046309508 0.038862977 0.11450962
-0.045128573 0.038746968 0.11450703
-0.044140052 0.03873352 0.11450528
-0.043157652 0.038741603 0.11450362
-0.042176273 0.038734823 0.1145019
